-5.00000000 7.81690168 1.69014084
-5.00000000 7.53521156 1.40845060
-5.00000000 7.46478987 1.26760554
-5.00000000 7.11267662 0.98591560
-5.00000000 6.90140915 0.70422530
-5.00000000 6.69014168 0.49295777
-5.00000000 6.47887421 0.28169012
-5.00000000 6.40845108 0.28169012
-5.00000000 6.40845108 0.21126761
-5.00000000 6.12676096 -0.14084508
-5.00000000 6.05633831 -0.14084508
-5.00000000 5.98591566 -0.21126761
-5.00000000 5.98591566 -0.28169012
-5.00000000 5.91549349 -0.28169012
-5.00000000 5.84507036 -0.35211265
-5.00000000 5.70422602 -0.49295777
-5.00000000 5.70422602 -0.42253521
-5.00000000 5.70422602 -0.56338024
-5.00000000 5.56338024 -0.63380277
-5.00000000 5.56338024 -0.70422530
-5.00000000 5.49295855 -0.70422530
-5.00000000 5.28168964 -0.84507042
-5.00000000 5.28168964 -0.91549301
-5.00000000 5.14084530 -0.98591560
-5.00000000 5.00000000 -1.19718313
-5.00000000 4.92957735 -1.26760554
-5.00000000 4.78873253 -1.40845060
-5.00000000 4.71830988 -1.54929578
-5.00000000 4.57746506 -1.54929578
-5.00000000 4.29577446 -1.90140843
-5.00000000 4.15492964 -2.04225349
-5.00000000 4.08450699 -2.11267614
-5.00000000 3.87323952 -2.32394361
-5.00000000 3.80281687 -2.39436626
-5.00000000 3.66197205 -2.53521109
-5.00000000 3.02816916 -3.23943710
-5.00000000 2.88732386 -3.30985999
-5.00000000 2.81690121 -3.38028193
-5.00000000 2.74647856 -3.45070434
-5.00000000 2.67605639 -3.52112675
-5.00000000 2.53521109 -3.66197205
-5.00000000 2.32394361 -3.87323952
-5.00000000 2.18309879 -4.08450699
-5.00000000 2.04225349 -4.15493011
-5.00000000 1.90140843 -4.29577494
-5.00000000 1.90140843 -4.36619759
-5.00000000 1.76056337 -4.43661976
-5.00000000 1.40845060 -4.78873253
-5.00000000 1.33802819 -4.85915518
-5.00000000 1.26760554 -4.92957783
-5.00000000 10.00000000 3.94366217
-5.00000000 9.92957687 3.87323952
-5.00000000 9.85915470 3.80281687
-5.00000000 9.78873253 3.66197205
-5.00000000 9.57746506 3.52112675
-5.00000000 9.50704193 3.38028193
-5.00000000 9.22535229 3.09859180
-5.00000000 8.73239422 2.67605639
-5.00000000 8.66197205 2.60563374
-5.00000000 8.66197205 2.67605639
-5.00000000 8.23943710 2.18309855
-5.00000000 8.09859180 2.04225349
-5.00000000 8.02816963 1.97183120
-5.00000000 7.95774698 1.97183108
-5.00000000 7.95774698 1.83098602
-5.00000000 7.88732481 1.83098602
-5.00000000 7.81690168 1.83098602
-5.00000000 7.67605734 1.61971855
-5.00000000 7.53521156 1.47887337
-5.00000000 7.46478987 1.40845060
-5.00000000 7.39436626 1.26760554
-5.00000000 7.11267662 1.05633807
-5.00000000 6.90140915 0.84507042
-5.00000000 6.69014168 0.63380277
-5.00000000 6.61971855 0.56338024
-5.00000000 6.54929590 0.56338024
-5.00000000 6.54929590 0.42253521
-5.00000000 6.33802843 0.28169012
-5.00000000 6.12676096 0.14084508
-5.00000000 6.05633831 0.00000000
-5.00000000 5.98591566 -0.07042254
-5.00000000 5.84507036 -0.21126761
-5.00000000 5.77464771 -0.28169012
-5.00000000 5.56338024 -0.56338024
-5.00000000 5.49295855 -0.56338024
-5.00000000 5.42253494 -0.63380277
-5.00000000 5.35211277 -0.70422530
-5.00000000 5.21126747 -0.84507042
-5.00000000 5.07042217 -0.98591560
-5.00000000 5.00000000 -1.05633807
-5.00000000 4.85915470 -1.19718313
-5.00000000 4.78873253 -1.26760554
-5.00000000 4.57746506 -1.47887337
-5.00000000 4.50704241 -1.54929578
-5.00000000 4.29577446 -1.69014084
-5.00000000 4.29577446 -1.76056337
-5.00000000 4.15492964 -1.97183108
-5.00000000 4.01408482 -2.04225349
-5.00000000 3.94366241 -2.11267614
-5.00000000 3.59154940 -2.39436626
-5.00000000 3.45070410 -2.60563374
-5.00000000 3.38028169 -2.67605639
-5.00000000 3.30985999 -2.74647927
-5.00000000 3.30985999 -2.67605639
-5.00000000 3.30985999 -2.81690121
-5.00000000 3.23943710 -2.81690121
-5.00000000 3.09859157 -2.95774651
-5.00000000 2.74647856 -3.38028193
-5.00000000 2.60563374 -3.45070434
-5.00000000 2.53521109 -3.52112675
-5.00000000 2.46478868 -3.52112675
-5.00000000 2.39436626 -3.66197205
-5.00000000 2.32394361 -3.73239493
-5.00000000 1.97183108 -4.08450699
-5.00000000 1.76056337 -4.29577494
-5.00000000 1.76056337 -4.36619759
-5.00000000 1.40845060 -4.64788723
-5.00000000 9.64788818 3.66197205
-5.00000000 9.57746506 3.66197205
-5.00000000 9.29577446 3.38028193
-5.00000000 9.22535229 3.38028193
-5.00000000 9.08450699 3.16901422
-5.00000000 9.08450699 3.09859180
-5.00000000 9.01408482 3.09859180
-5.00000000 8.73239422 2.81690121
-5.00000000 8.59154987 2.67605639
-5.00000000 8.52112770 2.60563374
-5.00000000 8.52112770 2.67605639
-5.00000000 8.38028145 2.53521109
-5.00000000 8.23943710 2.39436626
-5.00000000 8.23943710 2.25352097
-5.00000000 8.09859180 2.18309855
-5.00000000 7.95774698 2.11267614
-5.00000000 7.81690168 1.90140843
-5.00000000 7.53521156 1.61971855
-5.00000000 7.18309879 1.26760554
-5.00000000 7.11267662 1.19718313
-5.00000000 6.83098602 0.91549301
-5.00000000 6.61971855 0.70422530
-5.00000000 6.54929590 0.63380277
-5.00000000 6.26760674 0.35211265
-5.00000000 6.19718313 0.28169012
-5.00000000 5.98591566 0.07042254
-5.00000000 5.91549349 0.00000000
-5.00000000 5.84507036 0.00000000
-5.00000000 5.70422602 -0.28169012
-5.00000000 5.49295855 -0.42253521
-5.00000000 5.42253494 -0.49295777
-5.00000000 5.14084530 -0.84507042
-5.00000000 5.00000000 -0.98591560
-5.00000000 4.85915470 -1.05633807
-5.00000000 4.85915470 -1.12676060
-5.00000000 4.64788723 -1.26760554
-5.00000000 4.57746506 -1.26760554
-5.00000000 4.43661976 -1.47887337
-5.00000000 4.01408482 -1.97183108
-5.00000000 3.87323952 -2.04225349
-5.00000000 3.73239493 -2.25352097
-5.00000000 3.66197205 -2.25352097
-5.00000000 3.59154940 -2.25352097
-5.00000000 3.59154940 -2.32394361
-5.00000000 2.88732386 -3.02816916
-5.00000000 2.46478868 -3.38028193
-5.00000000 2.18309879 -3.73239493
-5.00000000 2.04225349 -3.80281687
-5.00000000 2.04225349 -3.87323952
-5.00000000 1.90140843 -3.94366217
-5.00000000 1.83098602 -4.08450699
-5.00000000 1.76056337 -4.15493011
-5.00000000 1.61971855 -4.29577494
-5.00000000 1.61971831 -4.22535229
-5.00000000 1.33802819 -4.57746506
-5.00000000 1.26760554 -4.64788723
-5.00000000 1.19718313 -4.64788723
-5.00000000 1.12676060 -4.78873253
-5.00000000 0.98591554 -4.92957783
-5.00000000 0.91549301 -4.92957783
-5.00000000 10.00000000 4.22535229
-5.00000000 9.92957687 4.15492964
-5.00000000 9.85915470 4.08450699
-5.00000000 9.71831036 3.94366217
-5.00000000 9.64788818 3.87323952
-5.00000000 9.64788818 3.80281687
-5.00000000 9.57746506 3.80281687
-5.00000000 9.50704193 3.73239493
-5.00000000 9.22535229 3.45070457
-5.00000000 9.08450699 3.38028193
-5.00000000 9.08450699 3.30985999
-5.00000000 8.94366264 3.23943710
-5.00000000 8.30986023 2.53521109
-5.00000000 8.23943710 2.53521109
-5.00000000 8.16901398 2.39436626
-5.00000000 8.09859180 2.32394361
-5.00000000 7.81690168 1.97183108
-5.00000000 7.39436626 1.69014084
-5.00000000 7.39436626 1.61971855
-5.00000000 7.39436626 1.54929578
-5.00000000 7.11267662 1.33802819
-5.00000000 6.97183132 1.19718313
-5.00000000 6.97183132 1.12676060
-5.00000000 6.90140915 1.12676060
-5.00000000 6.54929590 0.70422530
-5.00000000 6.47887421 0.70422530
-5.00000000 6.26760674 0.56338024
-5.00000000 6.26760674 0.49295777
-5.00000000 5.98591566 0.14084508
-5.00000000 5.70422602 -0.07042254
-5.00000000 5.63380241 -0.14084508
-5.00000000 5.56338024 -0.21126761
-5.00000000 5.28168964 -0.49295777
-5.00000000 5.21126747 -0.56338024
-5.00000000 4.57746506 -1.19718313
-5.00000000 4.57746506 -1.12676060
-5.00000000 4.50704241 -1.26760554
-5.00000000 4.15492964 -1.61971855
-5.00000000 4.01408482 -1.76056337
-5.00000000 4.01408482 -1.83098602
-5.00000000 3.94366241 -1.83098602
-5.00000000 3.87323952 -1.90140843
-5.00000000 3.80281687 -1.97183108
-5.00000000 3.73239493 -2.04225349
-5.00000000 3.66197205 -2.11267614
-5.00000000 3.30985999 -2.46478868
-5.00000000 2.95774674 -2.81690121
-5.00000000 2.88732386 -2.95774674
-5.00000000 2.60563374 -3.16901422
-5.00000000 2.39436626 -3.38028193
-5.00000000 2.32394361 -3.45070434
-5.00000000 2.32394361 -3.52112675
-5.00000000 2.04225349 -3.66197205
-5.00000000 1.90140843 -3.87323952
-5.00000000 1.61971855 -4.15493011
-5.00000000 1.12676060 -4.64788723
-5.00000000 1.05633807 -4.78873253
-5.00000000 0.91549301 -4.78873253
-5.00000000 10.00000000 4.36619759
-5.00000000 9.92957687 4.36619759
-5.00000000 9.92957687 4.29577494
-5.00000000 9.85915470 4.22535229
-5.00000000 9.22535229 3.66197205
-5.00000000 9.22535229 3.52112675
-5.00000000 9.15493011 3.52112675
-5.00000000 9.08450699 3.45070457
-5.00000000 9.01408482 3.38028193
-5.00000000 8.73239422 3.09859180
-5.00000000 8.52112770 2.88732386
-5.00000000 8.45070457 2.81690121
-5.00000000 8.38028145 2.81690121
-5.00000000 8.38028145 2.67605639
-5.00000000 8.09859180 2.46478868
-5.00000000 8.09859180 2.39436626
-5.00000000 8.02816963 2.39436626
-5.00000000 7.95774698 2.32394361
-5.00000000 7.60563374 1.97183120
-5.00000000 7.32394409 1.69014084
-5.00000000 7.25352097 1.61971855
-5.00000000 7.11267662 1.47887337
-5.00000000 6.97183132 1.33802819
-5.00000000 6.76056337 1.12676060
-5.00000000 6.69014168 1.05633807
-5.00000000 6.69014168 0.98591560
-5.00000000 6.40845108 0.84507042
-5.00000000 6.33802843 0.70422530
-5.00000000 6.26760674 0.70422530
-5.00000000 5.98591566 0.35211265
-5.00000000 5.70422602 0.07042254
-5.00000000 5.70422602 0.00000000
-5.00000000 5.63380241 0.00000000
-5.00000000 5.56338024 -0.07042254
-5.00000000 5.56338024 -0.14084508
-5.00000000 5.49295855 -0.14084508
-5.00000000 5.42253494 -0.28169012
-5.00000000 5.00000000 -0.56338024
-5.00000000 5.00000000 -0.70422530
-5.00000000 4.92957735 -0.70422530
-5.00000000 4.85915470 -0.77464789
-5.00000000 4.71830988 -0.84507042
-5.00000000 4.71830988 -0.91549301
-5.00000000 4.64788723 -0.98591560
-5.00000000 4.50704241 -1.12676060
-5.00000000 4.43661976 -1.19718313
-5.00000000 4.36619711 -1.26760554
-5.00000000 4.15492964 -1.40845060
-5.00000000 4.15492964 -1.47887337
-5.00000000 3.59154940 -1.97183108
-5.00000000 3.59154940 -2.04225349
-5.00000000 3.52112675 -2.11267614
-5.00000000 3.45070410 -2.18309855
-5.00000000 3.45070410 -2.25352097
-5.00000000 3.30985999 -2.25352097
-5.00000000 3.09859157 -2.53521109
-5.00000000 2.95774674 -2.67605639
-5.00000000 2.88732386 -2.67605639
-5.00000000 2.88732386 -2.74647927
-5.00000000 2.67605639 -2.95774651
-5.00000000 2.46478868 -3.23943710
-5.00000000 2.32394361 -3.23943710
-5.00000000 2.18309879 -3.45070434
-5.00000000 2.11267614 -3.52112675
-5.00000000 1.97183108 -3.66197205
-5.00000000 1.83098602 -3.80281687
-5.00000000 1.76056337 -3.94366217
-5.00000000 1.47887337 -4.15493011
-5.00000000 1.05633807 -4.57746506
-5.00000000 0.77464783 -4.85915518
-5.00000000 9.92957687 4.43661976
-5.00000000 9.78873253 4.29577494
-5.00000000 9.64788818 4.22535229
-5.00000000 9.64788818 4.15492964
-5.00000000 9.64788818 4.08450699
-5.00000000 9.50704193 3.94366217
-5.00000000 9.43661976 3.94366217
-5.00000000 9.36619759 3.94366217
-5.00000000 9.36619759 3.87323952
-5.00000000 9.36619759 3.80281687
-5.00000000 9.08450699 3.66197205
-5.00000000 9.01408482 3.52112675
-5.00000000 8.94366264 3.45070457
-5.00000000 8.66197205 3.09859180
-5.00000000 8.38028145 2.88732386
-5.00000000 8.38028145 2.95774674
-5.00000000 8.09859180 2.67605639
-5.00000000 8.09859180 2.60563374
-5.00000000 7.95774698 2.39436626
-5.00000000 7.81690168 2.32394361
-5.00000000 7.53521156 2.11267614
-5.00000000 7.53521156 2.04225349
-5.00000000 7.46478987 1.97183120
-5.00000000 7.25352097 1.76056337
-5.00000000 7.18309879 1.69014084
-5.00000000 7.11267662 1.61971855
-5.00000000 7.11267662 1.54929578
-5.00000000 6.83098602 1.33802819
-5.00000000 6.83098602 1.26760554
-5.00000000 6.76056337 1.26760554
-5.00000000 6.69014168 1.26760554
-5.00000000 6.54929590 1.05633807
-5.00000000 6.33802843 0.84507042
-5.00000000 6.19718313 0.70422530
-5.00000000 5.98591566 0.49295777
-5.00000000 5.98591566 0.56338024
-5.00000000 5.98591566 0.42253521
-5.00000000 5.91549349 0.42253521
-5.00000000 5.70422602 0.21126761
-5.00000000 5.49295855 0.00000000
-5.00000000 5.42253494 0.00000000
-5.00000000 5.42253494 -0.07042254
-5.00000000 5.42253494 -0.14084508
-5.00000000 4.85915470 -0.56338024
-5.00000000 4.43661976 -1.12676060
-5.00000000 4.36619711 -1.12676060
-5.00000000 4.15492964 -1.26760554
-5.00000000 4.01408482 -1.47887337
-5.00000000 4.01408482 -1.54929578
-5.00000000 3.94366241 -1.54929578
-5.00000000 3.80281687 -1.69014084
-5.00000000 3.73239493 -1.76056337
-5.00000000 3.66197205 -1.83098602
-5.00000000 3.59154940 -1.83098602
-5.00000000 3.59154940 -1.90140843
-5.00000000 3.52112675 -1.97183108
-5.00000000 2.95774674 -2.53521109
-5.00000000 2.74647856 -2.81690121
-5.00000000 2.60563374 -2.81690121
-5.00000000 2.60563374 -2.88732386
-5.00000000 2.46478868 -3.02816916
-5.00000000 2.46478868 -2.95774674
-5.00000000 2.39436626 -3.09859180
-5.00000000 2.32394361 -3.16901422
-5.00000000 2.18309879 -3.30985999
-5.00000000 2.18309879 -3.38028193
-5.00000000 1.97183108 -3.52112675
-5.00000000 1.90140843 -3.52112675
-5.00000000 1.69014084 -3.80281687
-5.00000000 1.61971831 -3.94366217
-5.00000000 1.40845060 -4.08450699
-5.00000000 1.33802819 -4.22535229
-5.00000000 1.05633807 -4.43661976
-5.00000000 1.05633807 -4.36619759
-5.00000000 0.98591554 -4.50704241
-5.00000000 0.84507042 -4.64788723
-5.00000000 0.77464783 -4.71830988
-5.00000000 9.92957687 4.50704241
-5.00000000 9.78873253 4.43661976
-5.00000000 9.78873253 4.36619759
-5.00000000 9.64788818 4.29577494
-5.00000000 9.64788818 4.36619759
-5.00000000 9.29577446 3.94366217
-5.00000000 9.15493011 3.80281687
-5.00000000 9.08450699 3.73239493
-5.00000000 8.94366264 3.59154940
-5.00000000 8.38028145 3.02816916
-5.00000000 8.30986023 2.95774674
-5.00000000 8.09859180 2.74647903
-5.00000000 7.95774698 2.60563374
-5.00000000 7.74647903 2.39436626
-5.00000000 7.67605734 2.25352097
-5.00000000 7.60563374 2.25352097
-5.00000000 7.53521156 2.18309855
-5.00000000 7.25352097 1.90140843
-5.00000000 7.25352097 1.97183108
-5.00000000 7.25352097 1.83098602
-5.00000000 6.69014168 1.33802819
-5.00000000 6.54929590 1.19718313
-5.00000000 6.54929590 1.12676060
-5.00000000 6.47887421 1.12676060
-5.00000000 6.40845108 1.05633807
-5.00000000 6.26760674 0.91549301
-5.00000000 6.19718313 0.84507042
-5.00000000 6.12676096 0.84507042
-5.00000000 5.56338024 0.21126761
-5.00000000 5.42253494 0.07042254
-5.00000000 5.35211277 0.00000000
-5.00000000 5.07042217 -0.28169012
-5.00000000 5.00000000 -0.42253521
-5.00000000 4.85915470 -0.42253521
-5.00000000 4.78873253 -0.56338024
-5.00000000 4.43661976 -0.91549301
-5.00000000 4.29577446 -1.05633807
-5.00000000 4.22535229 -1.12676060
-5.00000000 4.15492964 -1.12676060
-5.00000000 4.15492964 -1.19718313
-5.00000000 4.01408482 -1.33802819
-5.00000000 3.87323952 -1.47887337
-5.00000000 3.73239493 -1.61971855
-5.00000000 3.66197205 -1.69014084
-5.00000000 3.23943710 -2.11267614
-5.00000000 3.02816916 -2.32394361
-5.00000000 3.02816916 -2.39436626
-5.00000000 2.88732386 -2.53521109
-5.00000000 2.81690121 -2.53521109
-5.00000000 2.67605639 -2.67605639
-5.00000000 2.60563374 -2.74647927
-5.00000000 2.39436626 -2.95774651
-5.00000000 2.32394361 -3.09859180
-5.00000000 2.25352120 -3.09859180
-5.00000000 2.18309879 -3.09859180
-5.00000000 2.18309879 -3.23943710
-5.00000000 2.11267614 -3.23943710
-5.00000000 1.90140843 -3.45070434
-5.00000000 1.54929578 -3.80281687
-5.00000000 1.47887337 -3.80281687
-5.00000000 1.40845060 -3.94366217
-5.00000000 1.19718313 -4.22535229
-5.00000000 1.05633807 -4.29577494
-5.00000000 0.98591554 -4.36619759
-5.00000000 0.91549301 -4.43661976
-5.00000000 0.91549301 -4.36619759
-5.00000000 0.77464783 -4.57746506
-5.00000000 0.70422530 -4.64788723
-5.00000000 0.49295780 -4.85915518
-5.00000000 0.49295780 -4.92957783
-5.00000000 9.92957687 4.71830988
-5.00000000 9.85915470 4.64788723
-5.00000000 9.64788818 4.50704241
-5.00000000 9.36619759 4.15492964
-5.00000000 9.22535229 3.94366217
-5.00000000 9.08450699 3.94366217
-5.00000000 9.08450699 3.80281687
-5.00000000 8.80281639 3.66197205
-5.00000000 8.59154987 3.38028193
-5.00000000 8.38028145 3.23943710
-5.00000000 8.38028145 3.09859180
-5.00000000 8.30986023 3.09859180
-5.00000000 8.16901398 2.95774674
-5.00000000 8.09859180 2.95774674
-5.00000000 8.09859180 2.81690121
-5.00000000 7.95774698 2.74647903
-5.00000000 7.81690216 2.60563374
-5.00000000 7.81690216 2.53521109
-5.00000000 7.67605734 2.53521109
-5.00000000 7.67605734 2.39436626
-5.00000000 7.53521156 2.25352097
-5.00000000 7.25352097 2.04225349
-5.00000000 7.18309879 1.97183120
-5.00000000 6.97183132 1.76056337
-5.00000000 6.90140915 1.69014084
-5.00000000 6.83098602 1.69014084
-5.00000000 6.83098602 1.61971855
-5.00000000 6.76056337 1.54929578
-5.00000000 6.54929590 1.26760554
-5.00000000 6.40845108 1.26760554
-5.00000000 6.19718313 0.98591554
-5.00000000 5.91549349 0.70422530
-5.00000000 5.84507036 0.63380277
-5.00000000 5.84507036 0.56338024
-5.00000000 5.56338024 0.42253521
-5.00000000 5.56338024 0.28169012
-5.00000000 5.42253494 0.21126761
-5.00000000 5.28168964 0.00000000
-5.00000000 5.21126747 0.00000000
-5.00000000 5.00000000 -0.14084508
-5.00000000 4.71830988 -0.42253521
-5.00000000 4.15492964 -1.05633807
-5.00000000 3.87323952 -1.33802819
-5.00000000 3.73239493 -1.40845060
-5.00000000 3.73239493 -1.47887337
-5.00000000 3.59154940 -1.61971855
-5.00000000 3.45070410 -1.83098602
-5.00000000 3.30985999 -1.97183108
-5.00000000 3.23943710 -1.97183108
-5.00000000 3.16901422 -2.04225349
-5.00000000 3.09859157 -2.11267614
-5.00000000 3.02816916 -2.18309855
-5.00000000 2.88732386 -2.32394361
-5.00000000 2.25352120 -2.95774651
-5.00000000 1.97183108 -3.23943710
-5.00000000 1.90140843 -3.23943710
-5.00000000 1.90140843 -3.30985999
-5.00000000 1.83098602 -3.38028193
-5.00000000 1.76056337 -3.45070434
-5.00000000 1.33802819 -3.87323952
-5.00000000 1.12676060 -4.08450699
-5.00000000 1.05633807 -4.15493011
-5.00000000 0.91549301 -4.22535229
-5.00000000 0.77464783 -4.36619759
-5.00000000 0.56338030 -4.64788723
-5.00000000 0.49295780 -4.64788723
-5.00000000 0.42253521 -4.78873253
-5.00000000 0.35211271 -4.78873253
-5.00000000 0.28169015 -4.92957783
-5.00000000 9.92957687 4.92957783
-5.00000000 9.92957687 4.85915518
-5.00000000 9.78873253 4.64788723
-5.00000000 9.71831036 4.64788723
-5.00000000 9.64788818 4.57746506
-5.00000000 9.36619759 4.29577494
-5.00000000 9.36619759 4.22535229
-5.00000000 8.94366264 3.94366217
-5.00000000 8.87323952 3.80281687
-5.00000000 8.66197205 3.59154940
-5.00000000 8.66197205 3.66197205
-5.00000000 8.66197205 3.52112675
-5.00000000 8.59154987 3.52112675
-5.00000000 8.30986023 3.23943710
-5.00000000 7.81690216 2.74647903
-5.00000000 7.39436626 2.39436626
-5.00000000 7.25352097 2.18309855
-5.00000000 7.18309879 2.11267614
-5.00000000 7.11267662 1.97183108
-5.00000000 6.54929590 1.40845060
-5.00000000 6.26760674 1.12676060
-5.00000000 6.12676096 1.05633807
-5.00000000 6.12676096 1.12676060
-5.00000000 6.05633831 0.98591554
-5.00000000 5.98591566 0.91549301
-5.00000000 5.77464771 0.70422530
-5.00000000 5.70422602 0.63380277
-5.00000000 5.63380241 0.56338024
-5.00000000 5.56338024 0.56338024
-5.00000000 5.49295855 0.42253521
-5.00000000 5.42253494 0.28169012
-5.00000000 5.28168964 0.21126761
-5.00000000 5.21126747 0.14084508
-5.00000000 5.14084530 0.14084508
-5.00000000 5.14084530 0.00000000
-5.00000000 4.85915470 -0.14084508
-5.00000000 4.85915470 -0.28169012
-5.00000000 4.78873253 -0.28169012
-5.00000000 4.64788723 -0.42253521
-5.00000000 4.50704241 -0.56338024
-5.00000000 4.43661976 -0.56338024
-5.00000000 4.43661976 -0.63380277
-5.00000000 4.43661976 -0.70422530
-5.00000000 4.22535229 -0.84507042
-5.00000000 4.15492964 -0.91549301
-5.00000000 4.15492964 -0.98591560
-5.00000000 4.01408482 -1.05633807
-5.00000000 3.94366241 -1.12676060
-5.00000000 3.87323952 -1.19718313
-5.00000000 3.73239493 -1.33802819
-5.00000000 3.45070410 -1.54929590
-5.00000000 3.30985999 -1.76056337
-5.00000000 3.30985999 -1.83098602
-5.00000000 3.16901422 -1.90140843
-5.00000000 3.02816916 -2.04225349
-5.00000000 2.95774674 -2.11267614
-5.00000000 2.81690121 -2.25352097
-5.00000000 2.74647856 -2.32394361
-5.00000000 2.74647856 -2.39436626
-5.00000000 2.67605639 -2.39436626
-5.00000000 2.46478868 -2.60563374
-5.00000000 2.46478868 -2.67605639
-5.00000000 2.39436626 -2.67605639
-5.00000000 2.18309879 -2.88732386
-5.00000000 2.04225349 -3.02816916
-5.00000000 2.04225349 -2.95774651
-5.00000000 2.04225349 -3.09859180
-5.00000000 1.90140843 -3.16901422
-5.00000000 1.33802819 -3.66197205
-5.00000000 1.19718313 -3.87323952
-5.00000000 1.05633807 -4.01408482
-5.00000000 0.77464783 -4.29577494
-5.00000000 0.77464783 -4.22535229
-5.00000000 0.63380277 -4.43661976
-4.85915518 0.07042254 5.00000000
-4.92957783 0.07042254 5.00000000
-4.71830988 0.21126762 5.00000000
-4.29577494 0.63380277 5.00000000
-4.01408482 0.91549301 5.00000000
-3.87323952 1.05633807 5.00000000
-3.38028193 1.47887337 5.00000000
-3.30985999 1.61971831 5.00000000
-3.38028193 1.61971831 5.00000000
-3.16901422 1.76056337 5.00000000
-3.09859180 1.83098602 5.00000000
-2.88732386 2.04225349 5.00000000
-2.81690121 2.11267614 5.00000000
-2.67605639 2.25352120 5.00000000
-2.53521109 2.32394361 5.00000000
-2.25352097 2.60563374 5.00000000
-2.18309855 2.74647927 5.00000000
-2.25352097 2.74647927 5.00000000
-1.90140843 3.02816916 5.00000000
-1.83098602 3.02816916 5.00000000
-1.83098602 3.09859157 5.00000000
-1.69014084 3.30985999 5.00000000
-1.54929578 3.30985999 5.00000000
-1.54929590 3.38028169 5.00000000
-1.47887337 3.45070410 5.00000000
-1.19718313 3.73239493 5.00000000
-1.12676048 3.73239493 5.00000000
-1.05633807 3.87323952 5.00000000
-0.98591560 3.87323952 5.00000000
-0.98591554 3.94366217 5.00000000
-0.98591560 4.01408482 5.00000000
-0.77464789 4.15493011 5.00000000
-0.70422530 4.15493011 5.00000000
-0.70422530 4.29577446 5.00000000
-0.56338024 4.29577446 5.00000000
-0.28169012 4.64788723 5.00000000
-0.14084508 4.78873253 5.00000000
0.42253521 5.35211277 5.00000000
0.56338024 5.49295855 5.00000000
0.56338024 5.56338024 5.00000000
0.77464789 5.70422506 5.00000000
0.91549301 5.84507036 5.00000000
1.05633807 5.98591566 5.00000000
1.12676060 5.98591566 5.00000000
1.12676060 6.05633831 5.00000000
1.19718313 6.12676096 5.00000000
1.12676060 6.12676096 5.00000000
1.26760554 6.12676096 5.00000000
1.26760554 6.26760674 5.00000000
1.40845060 6.33802843 5.00000000
1.47887337 6.40845251 5.00000000
1.61971855 6.54929590 5.00000000
1.69014084 6.61971855 5.00000000
1.83098602 6.69014072 5.00000000
2.18309855 7.11267662 5.00000000
2.25352097 7.25352097 5.00000000
2.95774674 7.95774698 5.00000000
3.16901422 8.09859180 5.00000000
3.09859180 8.09859180 5.00000000
3.38028193 8.30985928 5.00000000
3.45070434 8.38028145 5.00000000
3.52112675 8.38028145 5.00000000
3.66197205 8.52112770 5.00000000
3.66197205 8.59154987 5.00000000
3.73239493 8.66197205 5.00000000
3.80281687 8.73239422 5.00000000
3.87323952 8.80281639 5.00000000
3.94366217 8.94366264 5.00000000
4.22535229 9.08450699 5.00000000
4.22535229 9.15493011 5.00000000
4.36619759 9.36619759 5.00000000
4.50704241 9.50704193 5.00000000
4.85915518 9.78873253 5.00000000
4.92957783 9.85915470 5.00000000
-4.64788723 0.14084508 5.00000000
-4.29577494 0.49295777 5.00000000
-4.36619759 0.49295780 5.00000000
-4.22535229 0.63380277 5.00000000
-4.01408482 0.77464783 5.00000000
-3.66197205 1.12676060 5.00000000
-3.45070457 1.33802819 5.00000000
-3.30985999 1.47887337 5.00000000
-3.23943710 1.54929578 5.00000000
-3.02816916 1.76056337 5.00000000
-2.95774674 1.83098602 5.00000000
-2.81690121 1.97183108 5.00000000
-2.74647903 2.04225349 5.00000000
-2.81690121 2.04225349 5.00000000
-2.53521109 2.25352120 5.00000000
-2.46478868 2.32394361 5.00000000
-2.25352097 2.53521109 5.00000000
-2.04225349 2.74647927 5.00000000
-2.11267614 2.74647927 5.00000000
-1.97183120 2.81690121 5.00000000
-1.97183120 2.88732386 5.00000000
-1.83098602 2.88732386 5.00000000
-1.83098602 2.95774674 5.00000000
-1.76056337 3.02816916 5.00000000
-1.69014072 3.02816916 5.00000000
-1.33802819 3.45070410 5.00000000
-1.26760554 3.59154940 5.00000000
-1.05633807 3.73239493 5.00000000
-0.98591560 3.73239493 5.00000000
-0.98591554 3.80281687 5.00000000
-0.91549301 3.87323952 5.00000000
-0.84507042 3.87323952 5.00000000
-0.84507042 4.01408482 5.00000000
-0.56338024 4.22535229 5.00000000
-0.42253521 4.36619711 5.00000000
-0.42253521 4.43661976 5.00000000
-0.28169012 4.50704241 5.00000000
-0.14084508 4.71830988 5.00000000
-0.07042254 4.71830988 5.00000000
0.00000000 4.78873253 5.00000000
0.00000000 4.85915470 5.00000000
0.42253521 5.14084530 5.00000000
0.63380277 5.42253494 5.00000000
0.98591560 5.77464771 5.00000000
1.19718313 5.98591566 5.00000000
1.26760554 6.05633831 5.00000000
1.40845060 6.19718313 5.00000000
1.54929578 6.40845251 5.00000000
1.61971855 6.40845251 5.00000000
1.83098602 6.54929590 5.00000000
1.97183108 6.76056337 5.00000000
2.11267614 6.90140915 5.00000000
2.32394361 7.11267662 5.00000000
2.39436626 7.11267662 5.00000000
2.39436626 7.18309879 5.00000000
2.53521109 7.25352097 5.00000000
2.74647927 7.53521156 5.00000000
2.81690121 7.60563374 5.00000000
3.16901422 7.95774698 5.00000000
3.23943710 8.02816963 5.00000000
3.30985999 8.09859180 5.00000000
3.23943710 8.09859180 5.00000000
3.38028193 8.09859180 5.00000000
4.22535229 9.01408482 5.00000000
4.57746506 9.36619759 5.00000000
4.78873253 9.57746506 5.00000000
4.78873253 9.64788818 5.00000000
4.85915518 9.64788818 5.00000000
4.92957783 9.64788818 5.00000000
-4.50704241 0.07042254 5.00000000
-4.43661976 0.21126762 5.00000000
-4.36619759 0.28169015 5.00000000
-4.36619759 0.35211271 5.00000000
-4.01408482 0.63380277 5.00000000
-3.87323952 0.77464783 5.00000000
-3.73239493 0.91549301 5.00000000
-3.52112675 1.12676060 5.00000000
-3.30985999 1.33802819 5.00000000
-3.09859180 1.54929578 5.00000000
-2.67605639 1.97183108 5.00000000
-2.53521109 2.04225349 5.00000000
-2.53521109 2.11267614 5.00000000
-2.39436626 2.32394361 5.00000000
-2.18309855 2.46478868 5.00000000
-2.11267614 2.53521109 5.00000000
-2.11267614 2.60563374 5.00000000
-1.97183120 2.67605639 5.00000000
-1.97183120 2.74647927 5.00000000
-1.54929578 3.09859157 5.00000000
-1.47887337 3.16901422 5.00000000
-1.40845060 3.23943710 5.00000000
-1.19718313 3.45070410 5.00000000
-1.12676048 3.59154940 5.00000000
-0.98591554 3.66197205 5.00000000
-0.77464789 3.87323952 5.00000000
-0.70422530 3.87323952 5.00000000
-0.63380277 4.01408482 5.00000000
-0.56338024 4.08450699 5.00000000
-0.49295777 4.15493011 5.00000000
-0.56338024 4.15493011 5.00000000
-0.42253521 4.15493011 5.00000000
-0.21126761 4.43661976 5.00000000
-0.07042254 4.57746506 5.00000000
0.07042254 4.71830988 5.00000000
0.14084508 4.85915470 5.00000000
0.42253521 5.00000000 5.00000000
0.70422530 5.35211277 5.00000000
0.70422530 5.42253494 5.00000000
1.26760554 5.98591566 5.00000000
1.40845060 6.05633831 5.00000000
1.54929578 6.19718313 5.00000000
1.76056337 6.40845251 5.00000000
2.18309855 6.83098602 5.00000000
2.25352097 6.90140915 5.00000000
2.53521109 7.11267662 5.00000000
2.60563374 7.25352097 5.00000000
2.67605639 7.32394409 5.00000000
2.88732386 7.53521156 5.00000000
3.02816916 7.67605639 5.00000000
3.23943710 7.81690168 5.00000000
3.30985999 7.95774698 5.00000000
3.52112675 8.23943710 5.00000000
3.59154940 8.23943710 5.00000000
3.73239493 8.38028145 5.00000000
3.80281687 8.45070457 5.00000000
3.87323952 8.52112770 5.00000000
4.36619759 9.01408482 5.00000000
4.36619759 9.08450699 5.00000000
4.64788723 9.29577446 5.00000000
4.64788723 9.36619759 5.00000000
4.71830988 9.36619759 5.00000000
4.78873253 9.43661976 5.00000000
-4.15492964 0.35211271 5.00000000
-3.87323952 0.63380277 5.00000000
-3.94366217 0.63380277 5.00000000
-3.52112675 0.98591560 5.00000000
-3.30985999 1.19718313 5.00000000
-3.02816916 1.47887337 5.00000000
-2.95774674 1.54929578 5.00000000
-2.95774674 1.61971855 5.00000000
-2.60563374 1.90140843 5.00000000
-2.25352097 2.25352120 5.00000000
-2.11267614 2.39436626 5.00000000
-2.04225349 2.46478868 5.00000000
-2.11267614 2.46478868 5.00000000
-1.83098602 2.60563374 5.00000000
-1.83098602 2.67605639 5.00000000
-1.76056337 2.74647927 5.00000000
-1.83098602 2.74647927 5.00000000
-1.69014084 2.81690121 5.00000000
-1.47887337 3.02816916 5.00000000
-1.54929566 3.02816916 5.00000000
-1.40845060 3.09859157 5.00000000
-1.33802819 3.16901422 5.00000000
-1.05633807 3.45070410 5.00000000
-0.98591560 3.59154940 5.00000000
-0.77464789 3.73239493 5.00000000
-0.70422530 3.80281687 5.00000000
-0.63380277 3.87323952 5.00000000
-0.56338024 3.94366217 5.00000000
-0.42253521 4.08450699 5.00000000
-0.35211265 4.15493011 5.00000000
-0.28169012 4.15493011 5.00000000
-0.21126761 4.29577446 5.00000000
0.00000000 4.43661976 5.00000000
0.00000000 4.50704241 5.00000000
0.21126761 4.71830988 5.00000000
0.28169012 4.71830988 5.00000000
0.56338024 5.07042217 5.00000000
0.91549301 5.42253494 5.00000000
0.84507042 5.42253494 5.00000000
0.98591560 5.49295855 5.00000000
0.98591560 5.56338024 5.00000000
1.12676060 5.63380241 5.00000000
1.12676060 5.70422506 5.00000000
1.19718313 5.70422506 5.00000000
1.26760554 5.70422506 5.00000000
1.40845060 5.91549349 5.00000000
1.54929578 6.12676096 5.00000000
1.83098602 6.33802891 5.00000000
1.90140843 6.40845251 5.00000000
2.32394361 6.83098602 5.00000000
2.39436626 6.90140915 5.00000000
2.46478868 6.97183132 5.00000000
2.60563374 7.11267662 5.00000000
2.81690121 7.32394409 5.00000000
2.81690121 7.39436626 5.00000000
3.52112675 8.02816963 5.00000000
3.59154940 8.09859180 5.00000000
3.66197205 8.16901398 5.00000000
3.80281687 8.38028145 5.00000000
3.94366217 8.52112770 5.00000000
4.08450699 8.59154987 5.00000000
4.15493011 8.66197205 5.00000000
4.08450699 8.66197205 5.00000000
4.29577494 8.80281639 5.00000000
4.22535229 8.80281639 5.00000000
4.36619759 8.80281639 5.00000000
4.43661976 8.94366264 5.00000000
4.64788723 9.08450699 5.00000000
4.71830988 9.22535229 5.00000000
4.64788723 9.22535229 5.00000000
4.78873253 9.22535229 5.00000000
-4.22535229 0.14084508 5.00000000
-4.15492964 0.21126762 5.00000000
-3.87323952 0.49295777 5.00000000
-3.38028193 0.91549301 5.00000000
-3.38028193 1.05633807 5.00000000
-3.09859180 1.26760554 5.00000000
-2.95774674 1.40845060 5.00000000
-2.88732386 1.47887337 5.00000000
-2.81690121 1.54929578 5.00000000
-2.60563374 1.76056337 5.00000000
-2.32394361 2.04225349 5.00000000
-2.25352097 2.11267614 5.00000000
-1.83098602 2.53521109 5.00000000
-1.76056337 2.60563374 5.00000000
-1.69014084 2.67605639 5.00000000
-1.61971855 2.74647927 5.00000000
-1.33802819 3.02816916 5.00000000
-1.12676048 3.16901422 5.00000000
-0.91549301 3.45070410 5.00000000
-0.84507042 3.52112675 5.00000000
-0.84507036 3.59154940 5.00000000
-0.77464789 3.59154940 5.00000000
-0.56338024 3.80281687 5.00000000
-0.42253521 3.94366217 5.00000000
-0.21126761 4.15493011 5.00000000
0.00000000 4.36619711 5.00000000
0.07042254 4.43661976 5.00000000
0.14084508 4.50704241 5.00000000
0.35211265 4.71830988 5.00000000
0.42253521 4.78873253 5.00000000
0.56338024 4.85915470 5.00000000
0.56338024 4.92957735 5.00000000
0.56338024 5.00000000 5.00000000
0.63380277 5.00000000 5.00000000
0.70422530 5.14084530 5.00000000
0.84507042 5.14084530 5.00000000
0.84507042 5.28168964 5.00000000
0.98591560 5.35211277 5.00000000
1.05633807 5.42253494 5.00000000
1.12676060 5.49295855 5.00000000
1.33802819 5.70422506 5.00000000
1.40845060 5.77464771 5.00000000
1.54929578 5.91549349 5.00000000
1.76056337 6.12676096 5.00000000
1.90140843 6.26760674 5.00000000
1.97183108 6.40845251 5.00000000
2.25352097 6.69014072 5.00000000
2.39436626 6.76056337 5.00000000
2.67605639 7.04225349 5.00000000
2.81690121 7.18309879 5.00000000
3.09859180 7.39436626 5.00000000
3.09859180 7.53521156 5.00000000
3.38028193 7.81690168 5.00000000
3.52112675 7.88732481 5.00000000
3.59154940 7.95774698 5.00000000
3.66197205 7.95774698 5.00000000
3.73239493 8.09859180 5.00000000
4.15493011 8.52112770 5.00000000
4.22535229 8.59154987 5.00000000
4.22535229 8.66197205 5.00000000
4.36619759 8.73239422 5.00000000
4.64788723 8.94366264 5.00000000
4.71830988 9.08450699 5.00000000
4.78873253 9.08450699 5.00000000
4.78873253 9.15493011 5.00000000
4.85915518 9.22535229 5.00000000
4.92957783 9.36619759 5.00000000
-4.08450699 0.14084508 5.00000000
-4.01408482 0.21126762 5.00000000
-3.94366217 0.28169015 5.00000000
-3.80281687 0.42253521 5.00000000
-3.80281687 0.49295783 5.00000000
-3.66197205 0.56338030 5.00000000
-3.52112675 0.70422530 5.00000000
-3.45070457 0.77464783 5.00000000
-3.38028193 0.84507042 5.00000000
-3.30985999 0.91549301 5.00000000
-3.23943710 1.05633807 5.00000000
-3.16901422 1.05633807 5.00000000
-3.09859180 1.19718313 5.00000000
-2.95774674 1.33802819 5.00000000
-2.81690121 1.33802819 5.00000000
-2.81690121 1.40845060 5.00000000
-2.74647903 1.47887337 5.00000000
-2.67605639 1.54929578 5.00000000
-2.53521109 1.69014084 5.00000000
-2.32394361 1.90140843 5.00000000
-2.39436626 1.90140843 5.00000000
-2.25352097 1.97183108 5.00000000
-2.18309855 2.04225349 5.00000000
-1.97183120 2.18309879 5.00000000
-1.90140843 2.32394361 5.00000000
-1.97183120 2.32394361 5.00000000
-1.76056337 2.46478868 5.00000000
-1.69014084 2.46478868 5.00000000
-1.61971831 2.60563374 5.00000000
-1.40845060 2.74647927 5.00000000
-1.26760554 2.95774674 5.00000000
-1.26760554 3.02816916 5.00000000
-1.05633807 3.16901422 5.00000000
-0.98591554 3.23943710 5.00000000
-0.98591560 3.30985999 5.00000000
-0.91549301 3.30985999 5.00000000
-0.84507042 3.30985999 5.00000000
-0.84507042 3.38028169 5.00000000
-0.42253521 3.73239493 5.00000000
-0.42253521 3.80281687 5.00000000
-0.35211265 3.87323952 5.00000000
-0.42253521 3.87323952 5.00000000
-0.07042254 4.15493011 5.00000000
0.00000000 4.22535229 5.00000000
0.42253521 4.64788723 5.00000000
0.49295777 4.71830988 5.00000000
0.56338024 4.71830988 5.00000000
1.90140843 6.12676096 5.00000000
2.53521109 6.69014072 5.00000000
2.81690121 6.97183132 5.00000000
2.88732386 7.11267662 5.00000000
2.95774651 7.25352097 5.00000000
3.02816916 7.25352097 5.00000000
3.09859180 7.25352097 5.00000000
3.09859180 7.32394409 5.00000000
3.23943710 7.46478987 5.00000000
3.52112675 7.74647903 5.00000000
3.52112675 7.81690168 5.00000000
3.73239493 7.95774698 5.00000000
3.80281687 8.02816963 5.00000000
4.08450699 8.23943710 5.00000000
4.08450699 8.30985928 5.00000000
4.36619759 8.52112770 5.00000000
4.43661976 8.66197205 5.00000000
4.71830988 8.94366264 5.00000000
4.85915518 9.08450699 5.00000000
-3.80281687 0.35211277 5.00000000
-3.66197205 0.42253521 5.00000000
-3.52112675 0.49295783 5.00000000
-3.52112675 0.56338030 5.00000000
-3.52112675 0.63380277 5.00000000
-3.16901422 0.91549301 5.00000000
-2.95774674 1.19718313 5.00000000
-2.81690121 1.26760554 5.00000000
-2.67605639 1.40845060 5.00000000
-2.53521109 1.54929578 5.00000000
-2.53521109 1.61971855 5.00000000
-2.32394361 1.76056337 5.00000000
-2.18309855 1.90140843 5.00000000
-2.11267614 1.97183108 5.00000000
-1.69014084 2.39436626 5.00000000
-1.54929578 2.46478868 5.00000000
-1.54929566 2.60563374 5.00000000
-1.40845060 2.67605639 5.00000000
-1.19718313 2.88732386 5.00000000
-1.05633807 3.02816916 5.00000000
-0.98591560 3.02816916 5.00000000
-0.98591554 3.09859157 5.00000000
-0.84507036 3.16901422 5.00000000
-0.84507042 3.23943710 5.00000000
-0.49295777 3.59154940 5.00000000
-0.28169012 3.73239493 5.00000000
-0.28169012 3.80281687 5.00000000
-0.28169012 3.87323952 5.00000000
-0.21126761 3.87323952 5.00000000
0.00000000 4.15493011 5.00000000
0.28169012 4.36619711 5.00000000
0.35211265 4.43661976 5.00000000
0.49295777 4.57746506 5.00000000
0.70422530 4.71830988 5.00000000
0.70422530 4.78873253 5.00000000
0.77464789 4.85915470 5.00000000
0.84507042 4.85915470 5.00000000
0.98591560 5.07042217 5.00000000
1.12676060 5.21126747 5.00000000
1.19718313 5.28168964 5.00000000
1.12676060 5.28168964 5.00000000
1.40845060 5.42253494 5.00000000
1.40845060 5.49295855 5.00000000
1.40845060 5.56338024 5.00000000
1.54929578 5.63380241 5.00000000
1.61971855 5.70422506 5.00000000
1.69014084 5.84507036 5.00000000
1.76056337 5.84507036 5.00000000
1.83098602 5.91549349 5.00000000
1.83098602 5.98591566 5.00000000
1.90140843 5.98591566 5.00000000
1.97183108 6.05633831 5.00000000
2.11267614 6.19718313 5.00000000
2.18309855 6.26760674 5.00000000
2.11267614 6.26760674 5.00000000
2.25352097 6.33802891 5.00000000
2.39436626 6.40845251 5.00000000
2.39436626 6.47887421 5.00000000
2.46478868 6.54929590 5.00000000
2.39436626 6.54929590 5.00000000
3.09859180 7.18309879 5.00000000
3.38028193 7.39436626 5.00000000
3.52112675 7.60563374 5.00000000
3.80281687 7.88732481 5.00000000
3.94366217 8.02816963 5.00000000
3.94366217 8.09859180 5.00000000
4.08450699 8.16901398 5.00000000
4.22535229 8.30985928 5.00000000
4.64788723 8.73239422 5.00000000
4.71830988 8.80281639 5.00000000
-3.52112675 0.35211277 5.00000000
-3.52112675 0.42253521 5.00000000
-3.30985999 0.63380277 5.00000000
-3.23943710 0.70422530 5.00000000
-2.81690121 1.12676060 5.00000000
-2.74647903 1.19718313 5.00000000
-2.60563374 1.33802819 5.00000000
-2.53521109 1.33802819 5.00000000
-2.39436626 1.54929578 5.00000000
-2.32394361 1.61971855 5.00000000
-2.39436626 1.61971855 5.00000000
-2.25352097 1.61971855 5.00000000
-2.25352097 1.69014084 5.00000000
-1.97183120 1.97183108 5.00000000
-1.83098602 2.18309879 5.00000000
-1.69014084 2.25352120 5.00000000
-1.54929578 2.39436626 5.00000000
-1.26760554 2.67605639 5.00000000
-1.26760554 2.74647927 5.00000000
-0.84507042 3.09859157 5.00000000
-0.77464789 3.16901422 5.00000000
-0.35211265 3.59154940 5.00000000
0.07042254 4.01408482 5.00000000
0.14084508 4.08450699 5.00000000
0.28169012 4.22535229 5.00000000
0.28169012 4.29577446 5.00000000
0.35211265 4.29577446 5.00000000
0.42253521 4.29577446 5.00000000
0.49295777 4.43661976 5.00000000
0.56338024 4.43661976 5.00000000
0.63380277 4.57746506 5.00000000
0.98591560 4.92957735 5.00000000
1.05633807 5.00000000 5.00000000
1.12676060 5.14084530 5.00000000
1.19718313 5.14084530 5.00000000
1.26760554 5.21126747 5.00000000
1.69014084 5.63380241 5.00000000
1.76056337 5.70422506 5.00000000
1.97183108 5.91549349 5.00000000
2.11267614 5.98591566 5.00000000
2.11267614 6.05633831 5.00000000
2.25352097 6.19718313 5.00000000
2.39436626 6.33802891 5.00000000
2.53521109 6.47887421 5.00000000
2.60563374 6.54929590 5.00000000
2.74647927 6.69014072 5.00000000
3.09859180 7.11267662 5.00000000
3.30985999 7.25352097 5.00000000
3.38028193 7.25352097 5.00000000
3.45070434 7.39436626 5.00000000
3.52112675 7.39436626 5.00000000
3.52112675 7.46478987 5.00000000
3.52112675 7.53521156 5.00000000
3.66197205 7.60563374 5.00000000
4.15493011 8.09859180 5.00000000
4.22535229 8.16901398 5.00000000
4.29577494 8.23943710 5.00000000
4.50704241 8.45070457 5.00000000
4.92957783 8.87323952 5.00000000
-3.73239493 0.07042254 5.00000000
-3.66197205 0.21126758 5.00000000
-3.52112675 0.28169015 5.00000000
-3.45070457 0.35211271 5.00000000
-3.38028193 0.35211271 5.00000000
-3.38028193 0.42253521 5.00000000
-3.38028193 0.49295780 5.00000000
-3.30985999 0.49295777 5.00000000
-3.16901422 0.63380277 5.00000000
-2.95774674 0.77464783 5.00000000
-2.95774674 0.84507042 5.00000000
-2.88732386 0.91549301 5.00000000
-2.81690121 0.98591560 5.00000000
-2.81690121 1.05633807 5.00000000
-2.74647903 1.05633807 5.00000000
-2.60563374 1.19718313 5.00000000
-2.32394361 1.47887337 5.00000000
-2.25352097 1.54929578 5.00000000
-2.18309855 1.61971855 5.00000000
-2.11267614 1.76056337 5.00000000
-1.90140843 1.90140843 5.00000000
-1.97183120 1.90140843 5.00000000
-1.83098602 1.90140843 5.00000000
-1.83098602 1.97183108 5.00000000
-1.83098602 2.04225349 5.00000000
-1.76056337 2.04225349 5.00000000
-1.69014096 2.04225349 5.00000000
-1.54929566 2.18309879 5.00000000
-1.26760554 2.53521109 5.00000000
-1.26760554 2.60563374 5.00000000
-1.05633807 2.74647927 5.00000000
-0.98591560 2.74647927 5.00000000
-0.98591560 2.88732386 5.00000000
-0.84507042 2.95774674 5.00000000
-0.84507036 3.02816916 5.00000000
-0.70422524 3.02816916 5.00000000
-0.56338024 3.23943710 5.00000000
-0.42253521 3.30985999 5.00000000
-0.42253530 3.45070410 5.00000000
-0.35211274 3.45070410 5.00000000
-0.21126761 3.59154940 5.00000000
0.00000000 3.80281687 5.00000000
0.14084508 3.87323952 5.00000000
0.21126761 4.01408482 5.00000000
0.35211265 4.15493011 5.00000000
0.42253521 4.15493011 5.00000000
0.70422530 4.43661976 5.00000000
0.70422530 4.50704241 5.00000000
0.77464789 4.57746506 5.00000000
1.12676060 4.85915470 5.00000000
1.33802819 5.14084530 5.00000000
1.54929578 5.42253494 5.00000000
1.76056337 5.56338024 5.00000000
1.90140843 5.70422506 5.00000000
1.97183108 5.84507036 5.00000000
2.25352097 5.98591566 5.00000000
2.39436626 6.19718313 5.00000000
2.60563374 6.40845251 5.00000000
2.88732386 6.69014072 5.00000000
2.95774651 6.83098602 5.00000000
3.16901422 6.97183132 5.00000000
3.23943710 7.04225349 5.00000000
3.30985999 7.11267662 5.00000000
3.38028193 7.11267662 5.00000000
3.45070434 7.25352097 5.00000000
3.52112675 7.32394409 5.00000000
3.73239493 7.53521156 5.00000000
3.80281687 7.67605639 5.00000000
3.87323952 7.67605639 5.00000000
3.94366217 7.74647903 5.00000000
4.01408482 7.81690168 5.00000000
4.22535229 8.09859180 5.00000000
4.29577494 8.09859180 5.00000000
4.36619759 8.16901398 5.00000000
4.43661976 8.23943710 5.00000000
4.36619759 8.23943710 5.00000000
4.64788723 8.45070457 5.00000000
4.92957783 8.80281639 5.00000000
-3.52112675 0.14084508 5.00000000
-3.30985999 0.35211271 5.00000000
-3.23943710 0.42253521 5.00000000
-3.23943710 0.49295780 5.00000000
-3.09859180 0.63380271 5.00000000
-2.81690121 0.91549307 5.00000000
-2.60563374 1.05633807 5.00000000
-2.39436626 1.19718313 5.00000000
-2.25352097 1.33802819 5.00000000
-2.04225349 1.61971855 5.00000000
-1.97183120 1.69014084 5.00000000
-1.76056337 1.90140843 5.00000000
-1.54929578 2.11267614 5.00000000
-1.47887337 2.18309879 5.00000000
-1.19718313 2.46478868 5.00000000
-0.91549301 2.74647927 5.00000000
-0.63380277 3.02816916 5.00000000
-0.49295777 3.16901422 5.00000000
-0.35211265 3.30985999 5.00000000
0.07042254 3.73239493 5.00000000
0.14084508 3.80281687 5.00000000
0.42253521 4.08450699 5.00000000
0.49295777 4.15493011 5.00000000
0.56338024 4.15493011 5.00000000
0.56338024 4.22535229 5.00000000
0.70422530 4.36619711 5.00000000
0.91549301 4.57746506 5.00000000
1.12676060 4.78873253 5.00000000
1.26760554 5.00000000 5.00000000
1.33802819 5.00000000 5.00000000
1.54929578 5.21126747 5.00000000
1.61971855 5.28168964 5.00000000
1.54929578 5.28168964 5.00000000
1.97183108 5.63380241 5.00000000
2.11267614 5.70422506 5.00000000
2.11267614 5.77464771 5.00000000
2.18309855 5.84507036 5.00000000
2.11267614 5.84507036 5.00000000
2.39436626 5.98591566 5.00000000
2.39436626 6.05633831 5.00000000
2.39436626 6.12676096 5.00000000
2.53521109 6.12676096 5.00000000
2.67605639 6.26760674 5.00000000
2.74647927 6.40845251 5.00000000
2.81690121 6.47887421 5.00000000
2.95774651 6.61971855 5.00000000
2.95774651 6.69014072 5.00000000
3.09859180 6.83098602 5.00000000
3.23943710 6.83098602 5.00000000
3.30985999 6.97183132 5.00000000
3.45070434 7.11267662 5.00000000
3.94366217 7.60563374 5.00000000
3.94366217 7.67605639 5.00000000
4.08450699 7.67605639 5.00000000
4.15493011 7.81690168 5.00000000
4.22535229 7.81690168 5.00000000
4.36619759 8.02816963 5.00000000
4.43661976 8.09859180 5.00000000
-3.38028193 0.07042249 5.00000000
-3.23943710 0.28169015 5.00000000
-2.74647903 0.77464783 5.00000000
-2.25352097 1.19718313 5.00000000
-2.25352097 1.26760554 5.00000000
-2.11267614 1.40845060 5.00000000
-1.97183120 1.61971855 5.00000000
-1.90140843 1.61971855 5.00000000
-1.61971855 1.90140843 5.00000000
-1.40845060 2.04225349 5.00000000
-1.26760554 2.32394361 5.00000000
-1.12676072 2.32394361 5.00000000
-1.12676060 2.46478868 5.00000000
-0.98591554 2.53521109 5.00000000
-0.84507036 2.60563374 5.00000000
-0.77464789 2.74647927 5.00000000
-0.70422530 2.88732386 5.00000000
-0.56338018 3.02816916 5.00000000
-0.42253521 3.09859157 5.00000000
-0.28169012 3.16901422 5.00000000
-0.07042255 3.45070410 5.00000000
-0.00000005 3.45070410 5.00000000
0.07042255 3.59154940 5.00000000
0.00000005 3.59154940 5.00000000
0.14084512 3.59154940 5.00000000
0.28169012 3.80281687 5.00000000
0.42253521 4.01408482 5.00000000
0.56338024 4.08450699 5.00000000
0.70422530 4.22535229 5.00000000
0.77464789 4.29577446 5.00000000
0.84507042 4.29577446 5.00000000
1.12676060 4.64788723 5.00000000
1.19718313 4.71830988 5.00000000
1.26760554 4.78873253 5.00000000
1.47887337 5.00000000 5.00000000
1.54929578 5.00000000 5.00000000
1.61971855 5.14084530 5.00000000
1.69014084 5.28168964 5.00000000
2.11267614 5.63380241 5.00000000
2.25352097 5.77464771 5.00000000
2.53521109 6.05633831 5.00000000
2.67605639 6.12676096 5.00000000
2.74647927 6.26760674 5.00000000
3.52112675 7.11267662 5.00000000
3.73239493 7.25352097 5.00000000
3.94366217 7.39436626 5.00000000
3.94366217 7.46478987 5.00000000
3.94366217 7.53521156 5.00000000
4.22535229 7.67605639 5.00000000
4.29577494 7.81690168 5.00000000
4.57746506 8.09859180 5.00000000
4.64788723 8.09859180 5.00000000
4.71830988 8.23943710 5.00000000
4.64788723 8.23943710 5.00000000
4.85915518 8.38028145 5.00000000
-3.16901422 0.21126762 5.00000000
-2.67605639 0.63380271 5.00000000
-2.60563374 0.77464783 5.00000000
-2.53521109 0.84507042 5.00000000
-2.32394361 1.05633807 5.00000000
-2.39436626 1.05633807 5.00000000
-2.11267614 1.26760554 5.00000000
-2.04225349 1.33802819 5.00000000
-2.11267614 1.33802819 5.00000000
-1.97183120 1.47887337 5.00000000
-1.90140843 1.47887337 5.00000000
-1.69014084 1.76056337 5.00000000
-1.54929578 1.76056337 5.00000000
-1.26760554 2.04225349 5.00000000
-1.26760554 2.11267614 5.00000000
-1.12676060 2.25352120 5.00000000
-0.98591554 2.39436626 5.00000000
-0.91549301 2.46478868 5.00000000
-0.42253521 2.95774674 5.00000000
-0.28169012 3.09859157 5.00000000
-0.14084508 3.23943710 5.00000000
-0.00000000 3.38028169 5.00000000
0.28169018 3.59154940 5.00000000
0.35211265 3.73239493 5.00000000
0.42253527 3.73239493 5.00000000
0.56338024 3.94366217 5.00000000
0.63380277 4.01408482 5.00000000
0.56338024 4.01408482 5.00000000
0.70422530 4.08450699 5.00000000
0.98591560 4.43661976 5.00000000
1.05633807 4.43661976 5.00000000
1.40845060 4.78873253 5.00000000
1.54929578 4.85915470 5.00000000
1.54929578 4.92957735 5.00000000
1.61971855 5.00000000 5.00000000
1.69014084 5.00000000 5.00000000
1.69014084 5.07042217 5.00000000
1.76056337 5.14084530 5.00000000
1.83098602 5.14084530 5.00000000
1.83098602 5.21126747 5.00000000
1.90140843 5.28168964 5.00000000
1.97183108 5.42253494 5.00000000
2.11267614 5.42253494 5.00000000
2.11267614 5.49295855 5.00000000
2.53521109 5.84507036 5.00000000
2.53521109 5.98591566 5.00000000
2.88732386 6.26760674 5.00000000
2.81690121 6.26760674 5.00000000
2.95774651 6.40845251 5.00000000
3.02816916 6.40845251 5.00000000
3.09859180 6.47887421 5.00000000
3.23943710 6.61971855 5.00000000
3.52112675 6.90140915 5.00000000
3.52112675 6.97183132 5.00000000
3.66197205 7.11267662 5.00000000
3.80281687 7.18309879 5.00000000
3.87323952 7.25352097 5.00000000
4.22535229 7.60563374 5.00000000
4.29577494 7.67605639 5.00000000
4.36619759 7.67605639 5.00000000
4.64788723 8.02816963 5.00000000
4.78873253 8.16901398 5.00000000
4.85915518 8.23943710 5.00000000
-3.16901422 0.07042253 5.00000000
-3.09859180 0.14084508 5.00000000
-2.81690121 0.42253521 5.00000000
-2.67605639 0.56338030 5.00000000
-2.53521109 0.70422530 5.00000000
-2.53521109 0.77464783 5.00000000
-1.97183120 1.26760554 5.00000000
-1.90140843 1.33802819 5.00000000
-1.76056337 1.47887337 5.00000000
-1.83098602 1.47887337 5.00000000
-1.69014084 1.47887337 5.00000000
-1.69014084 1.54929578 5.00000000
-1.40845060 1.76056337 5.00000000
-1.33802819 1.90140843 5.00000000
-1.40845060 1.90140843 5.00000000
-1.26760554 1.90140843 5.00000000
-0.91549301 2.32394361 5.00000000
-0.84507048 2.32394361 5.00000000
-0.70422530 2.53521109 5.00000000
-0.56338024 2.67605639 5.00000000
-0.35211265 2.88732386 5.00000000
-0.28169012 2.95774674 5.00000000
-0.21126761 3.02816916 5.00000000
0.14084508 3.38028169 5.00000000
0.42253521 3.66197205 5.00000000
0.70422530 4.01408482 5.00000000
