1.43925440 2.96979451 15.70422554
1.43925440 2.96979451 15.63380241
1.38375771 2.94754100 15.63380241
1.38375747 2.94754100 15.56338215
1.38375771 2.94754100 15.49295807
1.43925440 2.96979451 15.35211182
1.38375771 2.94754100 15.35211182
1.49526203 2.99097133 15.21126747
1.43925440 2.96979451 15.21126747
1.38375771 2.94754100 15.21126747
1.43925452 2.96979427 15.14084435
1.49526215 2.99097157 15.00000000
1.38375771 2.94754100 15.07042217
1.49526203 2.99097133 14.92957783
1.43925452 2.96979427 14.92957973
1.43925452 2.96979427 15.00000000
1.43925440 2.96979451 14.78873158
1.43925440 2.96979451 14.85915565
1.38375771 2.94754100 14.92957783
1.38375759 2.94754100 14.85915565
1.49526203 2.99097133 14.64788723
1.43925452 2.96979427 14.71830940
1.43925452 2.96979427 14.64788818
1.49526215 2.99097157 14.57746506
1.43925428 2.96979427 14.57746506
1.38375747 2.94754100 14.57746506
1.49526215 2.99097157 14.43662071
1.43925428 2.96979427 14.43662071
1.38375771 2.94754100 14.36619759
1.49526215 2.99097157 14.29577732
1.49526215 2.99097133 14.22535229
1.43925452 2.96979427 14.22535324
1.43925428 2.96979427 14.15493011
1.38375771 2.94754100 14.22535229
1.38375771 2.94754100 14.08450699
1.38375747 2.94754100 14.01408386
1.49526215 2.99097133 13.94366169
1.43925440 2.96979451 13.94366169
1.49526203 2.99097133 13.80281734
1.38375747 2.94754100 13.87323952
1.38375771 2.94754100 13.80281734
1.43925428 2.96979427 13.73239517
1.49526215 2.99097157 13.73239517
1.43925428 2.96979451 13.66197205
1.38375747 2.94754100 13.73239517
1.49526203 2.99097133 13.66197205
1.43925428 2.96979427 13.59155083
1.49526203 2.99097133 13.52112675
1.43925428 2.96979451 13.52112675
1.43925440 2.96979451 13.38028145
1.38375771 2.94754100 13.52112675
1.38375747 2.94754100 13.45070457
1.38375771 2.94754100 13.38028145
1.49526203 2.99097133 13.38028145
1.49526203 2.99097133 13.23943710
1.43925452 2.96979427 13.23943996
1.43925428 2.96979427 13.16901588
1.43925428 2.96979451 13.09859180
1.49526203 2.99097133 12.95774651
1.43925428 2.96979427 12.88732433
1.38375747 2.94754100 12.88732433
1.43925440 2.96979451 12.81690121
1.38375771 2.94754100 12.81690121
1.49526215 2.99097157 12.74647903
1.49526203 2.99097133 12.67605686
1.43925452 2.96979427 12.74647903
1.43925428 2.96979427 12.60563469
1.43925440 2.96979451 12.53521156
1.43925452 2.96979427 12.46478844
1.49526215 2.99097133 12.39436626
1.38375771 2.94754100 12.53521156
1.38375747 2.94754100 12.46478939
1.43925440 2.96979451 12.39436626
1.43925452 2.96979427 12.25352192
1.43925452 2.96979427 12.18309975
1.38375771 2.94754100 12.25352097
1.38375747 2.94754100 12.18309879
1.49526203 2.99097133 12.11267662
1.43925440 2.96979451 12.11267662
1.43925428 2.96979427 12.04225445
1.49526203 2.99097133 11.97183132
1.43925428 2.96979427 11.90140915
1.43925452 2.96979427 11.83098698
1.38375771 2.94754100 11.83098602
1.49526203 2.99097133 11.83098602
1.43925452 2.96979427 11.76056290
1.43925440 2.96979451 11.69014072
1.43925428 2.96979427 11.61971951
1.43925440 2.96979451 11.54929543
1.49526215 2.99097157 11.47887325
1.38375771 2.94754100 11.54929543
1.43925452 2.96979427 11.40845203
1.43925440 2.96979451 11.33802795
1.43925440 2.96979451 11.26760483
1.49526203 2.99097133 11.12676048
1.38375771 2.94754100 11.26760483
1.38375747 2.94754100 11.19718456
1.38375771 2.94754100 11.12676048
1.43925440 2.96979451 11.12676048
1.49526215 2.99097157 11.05633736
1.43925452 2.96979427 10.98591709
1.43925452 2.96979427 11.05633736
1.49526215 2.99097157 10.91549301
1.43925452 2.96979427 10.84507179
1.38375771 2.94754100 10.84507084
1.43925440 2.96979427 10.77464867
1.43925440 2.96979427 10.70422554
1.49526203 2.99097133 10.56338024
1.43925440 2.96979451 10.56338024
1.43925428 2.96979427 10.49295807
1.38375747 2.94754100 10.49295807
1.38375771 2.94754100 10.42253494
1.49526203 2.99097133 10.42253494
1.49526215 2.99097157 10.35211372
1.43925428 2.96979427 10.35211372
1.49524963 2.99097085 10.28169060
1.43924642 2.96979141 10.28169537
1.49470019 2.99095368 10.21148682
1.43903923 2.96971011 10.21148682
1.43884039 2.96963215 10.14125729
1.38363051 2.94744968 10.21111965
1.48851871 2.98908925 10.14765072
1.37994778 2.94480515 10.13601112
1.41229582 2.95923591 10.00000000
1.56059003 2.99302554 20.00000000
1.49829662 2.99106693 19.93613052
1.56132698 2.99304891 19.92958260
1.69157588 2.97215843 19.92921829
1.69178176 2.97208381 19.85858345
1.62802589 2.99514604 20.00000000
1.63460708 2.99276543 19.85234833
1.69178224 2.97208381 19.78851318
1.69160020 2.97214961 19.71830368
1.62925541 2.99470115 19.78851509
1.69159245 2.97215223 19.57746506
1.62876999 2.99487662 19.64788628
1.69159245 2.97215223 19.50704193
1.62876999 2.99487662 19.50704193
1.62876999 2.99487686 19.43662071
1.75538230 2.94894934 19.36619759
1.69159245 2.97215223 19.36619759
1.62876999 2.99487662 19.36619759
1.69159281 2.97215247 19.29577446
1.62876999 2.99487686 19.29577446
1.75538206 2.94894934 19.15493011
1.69159281 2.97215247 19.15493011
1.75538230 2.94894934 19.08450699
1.75538206 2.94894934 19.01408386
1.69159281 2.97215247 19.01408386
1.69159245 2.97215223 18.94366074
1.62876999 2.99487662 18.94366074
1.75538206 2.94894934 18.87323952
1.69159281 2.97215247 18.73239517
1.62876999 2.99487686 18.73239517
1.75538206 2.94894934 18.73239517
1.69159245 2.97215223 18.66197205
1.75538206 2.94894934 18.59154892
1.69159281 2.97215247 18.59154892
1.69159245 2.97215223 18.52112579
1.62876999 2.99487686 18.59154892
1.62876999 2.99487662 18.52112579
1.69159281 2.97215247 18.45070267
1.69159245 2.97215223 18.38028145
1.62876999 2.99487662 18.38028145
1.62876999 2.99487686 18.30986023
1.75538206 2.94894934 18.30986023
1.69159281 2.97215247 18.30986023
1.75538230 2.94894934 18.23943710
1.69159245 2.97215223 18.23943710
1.75538206 2.94894934 18.16901398
1.69159281 2.97215247 18.16901398
1.62876999 2.99487662 18.23943710
1.75538230 2.94894934 17.95774651
1.69159281 2.97215247 18.02816963
1.69159245 2.97215223 17.88732529
1.62876999 2.99487686 18.02816963
1.62876999 2.99487662 17.95774651
1.62876999 2.99487662 17.88732529
1.75538206 2.94894934 17.74647903
1.69159281 2.97215247 17.74647903
1.62876999 2.99487686 17.74647903
1.69159245 2.97215223 17.67605591
1.69159281 2.97215247 17.60563469
1.75538206 2.94894934 17.46478844
1.75538230 2.94894934 17.39436531
1.69159245 2.97215223 17.39436531
1.75538206 2.94894934 17.32394218
1.69159281 2.97215247 17.32394218
1.75538242 2.94894934 17.25352097
1.69159281 2.97215247 17.18309975
1.69159245 2.97215223 17.25352097
1.62876999 2.99487662 17.25352097
1.75538230 2.94894934 17.11267662
1.75538206 2.94894934 17.04225349
1.62876999 2.99487686 17.04225349
1.75538206 2.94894934 16.90140915
1.62876999 2.99487662 16.97183228
1.62876999 2.99487686 16.90140915
1.69159245 2.97215223 16.69013977
1.62876999 2.99487686 16.76056290
1.69159245 2.97215223 16.61972046
1.62876999 2.99487662 16.61972046
1.75538206 2.94894934 16.47887421
1.69159245 2.97215223 16.54929733
1.69159281 2.97215247 16.47887421
1.69159245 2.97215223 16.40845108
1.75538206 2.94894934 16.33802795
1.62876999 2.99487662 16.40845108
1.62876999 2.99487686 16.33802795
1.69159245 2.97215223 16.26760483
1.62876999 2.99487662 16.26760483
1.69159281 2.97215247 16.19718170
1.62876999 2.99487686 16.05633926
1.62876999 2.99487686 15.91549301
1.69159245 2.97215223 15.84507179
1.75538230 2.94894934 15.84507179
1.62876999 2.99487662 15.84507179
1.75538206 2.94894934 15.77464867
1.69159245 2.97215223 15.70422554
1.62876999 2.99487686 15.77464867
1.69159281 2.97215247 15.63380241
1.62876999 2.99487686 15.63380241
1.69159245 2.97215223 15.56338215
1.75538230 2.94894934 15.56338120
1.75538206 2.94894934 15.49295807
1.69159281 2.97215247 15.49295807
1.75538230 2.94894934 15.42253494
1.69159245 2.97215223 15.42253494
1.69159281 2.97215247 15.35211182
1.62876999 2.99487686 15.49295807
1.62876999 2.99487662 15.42253494
1.69159245 2.97215223 15.28169060
1.75538206 2.94894934 15.21126747
1.69159245 2.97215223 15.14084435
1.75538206 2.94894934 15.07042217
1.75538206 2.94894934 14.92957783
1.69159245 2.97215223 14.92957973
1.69159245 2.97215223 14.85915565
1.75538206 2.94894934 14.78873158
1.62876999 2.99487662 14.92957973
1.62876999 2.99487662 14.85915565
1.69159281 2.97215247 14.78873158
1.69159245 2.97215223 14.71830940
1.75538206 2.94894934 14.64788723
1.62876999 2.99487686 14.78873158
1.69159245 2.97215223 14.64788818
1.69159281 2.97215247 14.50704193
1.62876999 2.99487662 14.57746506
1.62876999 2.99487662 14.50704479
1.75538206 2.94894934 14.50704193
1.69159245 2.97215223 14.43662071
1.69159281 2.97215247 14.36619759
1.62876999 2.99487662 14.43662071
1.62876999 2.99487686 14.36619759
1.69159245 2.97215223 14.29577446
1.62876999 2.99487662 14.22535324
1.75538206 2.94894934 14.08450699
1.69159245 2.97215223 14.15493011
1.69159281 2.97215247 14.08450699
1.75538242 2.94894934 14.01408386
1.69159245 2.97215223 14.01408386
1.69159281 2.97215247 13.94366169
1.75538230 2.94894934 13.87323952
1.69159245 2.97215223 13.87324142
1.62876999 2.99487686 13.94366169
1.75538242 2.94894934 13.73239517
1.69159245 2.97215223 13.80281830
1.75538206 2.94894934 13.66197205
1.69159245 2.97215223 13.73239517
1.62876999 2.99487686 13.80281734
1.62876999 2.99487662 13.73239517
1.69159281 2.97215247 13.66197205
1.69159245 2.97215223 13.59155083
1.69159281 2.97215247 13.52112675
1.75538242 2.94894934 13.45070457
1.69159245 2.97215223 13.45070457
1.75538218 2.94894910 13.23943710
1.69159257 2.97215223 13.23943996
1.62876999 2.99487686 13.38028145
1.75538242 2.94894934 13.16901588
1.69159245 2.97215223 13.16901588
1.62876999 2.99487662 13.16901588
1.69159281 2.97215247 13.09859180
1.69159245 2.97215223 13.02816963
1.75538230 2.94894958 13.02816963
1.75538206 2.94894934 12.95774651
1.69159245 2.97215223 12.95774841
1.69159245 2.97215223 12.88732433
1.62876999 2.99487686 12.81690121
1.75538230 2.94894934 12.74647903
1.69159245 2.97215223 12.74647903
1.75538206 2.94894934 12.67605686
1.69159281 2.97215247 12.67605686
1.69159245 2.97215223 12.60563469
1.75538206 2.94894934 12.39436626
1.69159281 2.97215247 12.39436626
1.69159245 2.97215223 12.46478844
1.75538230 2.94894958 12.32394409
1.69159245 2.97215223 12.32394409
1.75538206 2.94894934 12.25352097
1.62876999 2.99487686 12.39436626
1.69159245 2.97215223 12.18309975
1.75538230 2.94894934 12.18309879
1.69159281 2.97215247 12.11267662
1.69159245 2.97215223 12.04225445
1.69159281 2.97215247 11.97183132
1.75538230 2.94894958 11.90141106
1.69159245 2.97215223 11.90140915
1.75538206 2.94894934 11.83098602
1.69159245 2.97215223 11.83098698
1.75538242 2.94894934 11.76056290
1.69159245 2.97215223 11.76056290
1.69159281 2.97215247 11.69014072
1.62876999 2.99487686 11.69014072
1.62876999 2.99487662 11.61971951
1.75538206 2.94894934 11.54929543
1.69159281 2.97215247 11.54929543
1.69159245 2.97215223 11.40845203
1.62876999 2.99487686 11.54929543
1.62876999 2.99487662 11.40845203
1.69159245 2.97215223 11.33802795
1.69159281 2.97215247 11.26760483
1.62876999 2.99487662 11.33802795
1.75538206 2.94894934 11.12676048
1.62876999 2.99487686 11.26760483
1.69159281 2.97215247 11.12676048
1.69159245 2.97215223 11.05633736
1.69159245 2.97215223 10.98591709
1.69159245 2.97215223 10.91549301
1.69159245 2.97215223 10.84507179
1.75538230 2.94894934 10.77464867
1.69159245 2.97215223 10.70422554
1.75538218 2.94894934 10.56338120
1.69159245 2.97215223 10.63380241
1.69159245 2.97215223 10.56338120
1.69159281 2.97215247 10.42253494
1.75538230 2.94894934 10.35211372
1.75538015 2.94895053 10.28169060
1.62876999 2.99487686 10.42253494
1.69159281 2.97215247 10.28169060
1.75537837 2.94895220 10.21127701
1.69158864 2.97215366 10.21126461
1.62268519 2.99497819 10.13588428
1.69141769 2.97221565 10.14068222
1.75536680 2.94896030 10.07041931
1.69140399 2.97222042 10.06991386
1.75501275 2.94921184 10.00000000
1.69151926 2.97217894 10.00000000
1.62856531 2.99495077 10.05951118
1.86557019 2.87061429 20.00000000
1.81029153 2.90991306 20.00000000
1.75501275 2.94921184 20.00000000
1.75536978 2.94895840 19.92957306
1.81032383 2.90988994 19.85915565
1.81032419 2.90989017 19.78873253
1.75538361 2.94894814 19.85915565
1.86569405 2.87048960 19.71830940
1.75538385 2.94894791 19.71830940
1.75538206 2.94894934 19.57746315
1.86569405 2.87048960 19.43662071
1.81032419 2.90989017 19.43661880
1.86569405 2.87048960 19.29577446
1.75538206 2.94894934 19.43662071
1.75538206 2.94894934 19.29577446
1.81032419 2.90989017 19.22535324
1.86569405 2.87048960 19.22535324
1.86569405 2.87048960 19.01408386
1.81032419 2.90988970 19.01408386
1.81032419 2.90989017 18.94366074
1.75538230 2.94894934 18.94366074
1.75538230 2.94894934 18.80281830
1.86569405 2.87048960 18.73239517
1.86569405 2.87048960 18.59154892
1.81032407 2.90988994 18.59154892
1.86569405 2.87048960 18.45070267
1.81032419 2.90989017 18.52112579
1.75538230 2.94894934 18.52112579
1.81032419 2.90988970 18.45070267
1.75538206 2.94894934 18.45070267
1.86569405 2.87048960 18.30986023
1.81032419 2.90988970 18.30986023
1.81032419 2.90989017 18.23943710
1.86569405 2.87048960 18.09859085
1.86569405 2.87048960 18.02816963
1.81032407 2.90988994 18.02816963
1.75538230 2.94894934 18.09859085
1.75538206 2.94894934 18.02816963
1.81032419 2.90989017 17.95774651
1.86569405 2.87048960 17.95774651
1.75538206 2.94894934 17.88732338
1.81032419 2.90989017 17.81690216
1.86569405 2.87048960 17.74647903
1.81032407 2.90988994 17.74647903
1.81032419 2.90989017 17.67605591
1.81032407 2.90988994 17.60563469
1.75538206 2.94894934 17.60563469
1.81032419 2.90989017 17.53521156
1.75538230 2.94894934 17.53521156
1.81032419 2.90989017 17.39436531
1.81032419 2.90989017 17.25352097
1.86569405 2.87048960 17.18309975
1.75538206 2.94894934 17.18309975
1.86569405 2.87048960 17.11267662
1.81032419 2.90989017 17.11267662
1.81032407 2.90988994 17.04225349
1.81032407 2.90988994 16.90140915
1.86569405 2.87048960 16.83098602
1.81032419 2.90989017 16.83098602
1.86569405 2.87048960 16.76056290
1.81032419 2.90988970 16.76056290
1.75538206 2.94894934 16.76056290
1.81032419 2.90989017 16.69013977
1.75538206 2.94894934 16.61971855
1.81032419 2.90988970 16.61971855
1.86569405 2.87048960 16.54929733
1.75538230 2.94894934 16.54929733
1.86569405 2.87048960 16.47887421
1.86569405 2.87048960 16.40845108
1.81032419 2.90989017 16.40845108
1.75538230 2.94894934 16.40845108
1.81032419 2.90988970 16.33802795
1.81032419 2.90989017 16.26760483
1.81032407 2.90988994 16.19718170
1.75538206 2.94894934 16.19718170
1.86569405 2.87048960 16.12676048
1.81032419 2.90988970 16.05633926
1.81032419 2.90989017 16.12676048
1.75538242 2.94894934 16.12676048
1.75538206 2.94894934 16.05633926
1.86569405 2.87048960 15.98591709
1.86569405 2.87048960 15.91549301
1.81032419 2.90989017 15.98591709
1.81032419 2.90988970 15.91549301
1.81032407 2.90988994 15.77464867
1.81032419 2.90989017 15.84507179
1.75538206 2.94894934 15.91549301
1.81032407 2.90988994 15.63380241
1.75538206 2.94894934 15.63380241
1.81032419 2.90989017 15.56338215
1.81032419 2.90988970 15.49295807
1.75538206 2.94894934 15.35211182
1.86569405 2.87048960 15.35211182
1.81032407 2.90988994 15.35211182
1.86569405 2.87048960 15.21126747
1.81032419 2.90989017 15.28169060
1.81032419 2.90988994 15.21126747
1.86569428 2.87048960 15.14084435
1.81032419 2.90989017 15.14084435
1.81032419 2.90989017 15.00000000
1.86569393 2.87048960 14.92957783
1.86569405 2.87048960 14.85915565
1.81032419 2.90989017 14.85915565
1.86569405 2.87048960 14.78873158
1.86569405 2.87048960 14.71830940
1.81032407 2.90988994 14.78873158
1.86569393 2.87048960 14.64788723
1.81032419 2.90989017 14.71830940
1.75538230 2.94894934 14.71830940
1.86569405 2.87048960 14.50704193
1.81032407 2.90988994 14.50704193
1.81032419 2.90989017 14.57746506
1.75538242 2.94894934 14.57746506
1.86569405 2.87048960 14.43662071
1.81032419 2.90988994 14.36619759
1.75538206 2.94894934 14.36619759
1.81032419 2.90989017 14.29577637
1.75538230 2.94894958 14.29577732
1.75538206 2.94894934 14.22535229
1.86569428 2.87048960 14.15493011
1.75538242 2.94894934 14.15493011
1.81032407 2.90988994 13.94366169
1.81032419 2.90989017 13.87324142
1.75538206 2.94894934 13.94366169
1.81032419 2.90989017 13.80281830
1.75538218 2.94894934 13.80281830
1.86569428 2.87048960 13.73239517
1.86569428 2.87048960 13.59155083
1.81032419 2.90988970 13.52112675
1.75538206 2.94894934 13.52112675
1.86569405 2.87048960 13.38028145
1.75538206 2.94894934 13.38028145
1.75538230 2.94894934 13.30985928
1.81032419 2.90988994 13.16901588
1.86569405 2.87048960 13.09859180
1.81032419 2.90988970 13.09859180
1.75538206 2.94894934 13.09859180
1.81032419 2.90989017 13.02816963
1.86569428 2.87048960 13.02816963
1.81032443 2.90989017 12.95774841
1.86569428 2.87048960 12.88732433
1.81032419 2.90989017 12.88732433
1.75538242 2.94894934 12.88732433
1.86569405 2.87048960 12.81690121
1.75538206 2.94894934 12.81690121
1.81032419 2.90988970 12.67605686
1.86569405 2.87048960 12.53521156
1.75538242 2.94894934 12.60563469
1.81032419 2.90988994 12.53521156
1.86569428 2.87048960 12.46478939
1.81032419 2.90989017 12.46478844
1.75538206 2.94894934 12.53521156
1.81032419 2.90988970 12.39436626
1.86569428 2.87048960 12.32394409
1.81032431 2.90989017 12.25352192
1.86569405 2.87048960 12.11267662
1.75538206 2.94894934 12.11267662
1.81032419 2.90988970 12.11267662
1.81032419 2.90989017 12.04225445
1.86569428 2.87048960 12.04225445
1.75538206 2.94894934 11.97183132
1.81032419 2.90988970 11.97183132
1.81032419 2.90989017 11.90140915
1.81032419 2.90988970 11.83098602
1.81032419 2.90989017 11.76056290
1.86569405 2.87048960 11.69014072
1.75538206 2.94894934 11.69014072
1.75538242 2.94894934 11.61971951
1.81032419 2.90989017 11.47887325
1.75538230 2.94894934 11.47887325
1.86569393 2.87048960 11.40845108
1.81032419 2.90989017 11.40845203
1.75538206 2.94894934 11.40845108
1.75538230 2.94894934 11.33802795
1.75538206 2.94894934 11.26760483
1.86569405 2.87048960 11.12676048
1.81032419 2.90988994 11.12676048
1.75538230 2.94894958 11.05633736
1.75538206 2.94894934 10.98591518
1.86569405 2.87048960 10.91549301
1.81032431 2.90989017 10.98591709
1.81032419 2.90989017 10.91549301
1.86569405 2.87048960 10.84507084
1.81032419 2.90989017 10.84507179
1.86569405 2.87048960 10.77464867
1.75538206 2.94894934 10.84507084
1.75538206 2.94894934 10.70422459
1.86569393 2.87048960 10.70422459
1.81032419 2.90989017 10.70422554
1.81032419 2.90989017 10.63380241
1.86569405 2.87048960 10.63380241
1.75538230 2.94894934 10.63380241
1.86569393 2.87048960 10.56338024
1.81032419 2.90989017 10.49295807
1.86569428 2.87048960 10.49295807
1.86569405 2.87048960 10.42253494
1.75538206 2.94894934 10.42253494
1.86569405 2.87048960 10.35211372
1.86507821 2.87096405 10.21148682
1.81014085 2.91002035 10.21148968
1.81014085 2.91002035 10.14141655
1.75537837 2.94895196 10.14084435
1.81030917 2.90990067 10.07078266
1.91341710 2.82242393 20.00000000
1.91341519 2.82242560 19.92957687
1.91341925 2.82242179 19.85915565
1.86568975 2.87049389 19.92957687
1.86569393 2.87048960 19.85915565
1.96117401 2.77432418 19.78873253
1.91341925 2.82242155 19.78873253
1.86569405 2.87048960 19.78873253
1.91341937 2.82242155 19.71830940
1.96117401 2.77432418 19.57746506
1.91341913 2.82242155 19.57746506
1.91341925 2.82242155 19.64788628
1.96117401 2.77432418 19.50704193
1.86569393 2.87048960 19.57746315
1.91341925 2.82242155 19.50704193
1.91341925 2.82242155 19.36619759
1.86569405 2.87048960 19.36619759
1.91341937 2.82242155 19.29577446
1.96117401 2.77432418 19.22535324
1.91341913 2.82242155 19.22535324
1.91341937 2.82242155 19.15493011
1.96117413 2.77432394 19.15493011
1.86569405 2.87048960 19.15493011
1.91341937 2.82242155 19.01408386
1.86569405 2.87048960 19.08450699
1.96117401 2.77432418 18.87324142
1.86569393 2.87048960 18.87323952
1.91341937 2.82242155 18.73239517
1.91341913 2.82242155 18.80281830
1.96117413 2.77432394 18.73239517
1.91341925 2.82242155 18.66197205
1.91341937 2.82242155 18.59154892
1.91341925 2.82242155 18.52112579
1.91341937 2.82242155 18.45070267
1.96117425 2.77432394 18.45070267
1.96117425 2.77432394 18.30986023
1.86569405 2.87048960 18.38028145
1.86569405 2.87048960 18.23943710
1.86569405 2.87048960 18.16901398
1.96117413 2.77432394 18.16901398
1.91341913 2.82242155 18.09859085
1.96117413 2.77432394 18.02816963
1.91341937 2.82242155 18.02816963
1.91341925 2.82242155 17.95774651
1.86569393 2.87048960 17.88732338
1.91341913 2.82242155 17.81690216
1.96117413 2.77432394 17.74647903
1.86569405 2.87048960 17.81690216
1.91341937 2.82242155 17.74647903
1.96117401 2.77432418 17.67605591
1.91341913 2.82242155 17.67605591
1.96117413 2.77432394 17.60563469
1.86569405 2.87048960 17.67605591
1.91341937 2.82242155 17.60563469
1.86569405 2.87048960 17.60563469
1.96117413 2.77432394 17.46478844
1.91341925 2.82242155 17.53521156
1.86569405 2.87048960 17.46478844
1.96117401 2.77432418 17.39436531
1.86569405 2.87048960 17.32394218
1.96117401 2.77432418 17.25352097
1.91341937 2.82242155 17.18309975
1.96117413 2.77432394 17.04225349
1.86569405 2.87048960 17.04225349
1.91341937 2.82242155 17.04225349
1.91341913 2.82242155 16.97183228
1.86569405 2.87048960 16.97183228
1.86569405 2.87048960 16.90140915
1.96117413 2.77432394 16.90140915
1.91341937 2.82242155 16.90140915
1.91341925 2.82242155 16.83098602
1.91341937 2.82242155 16.76056290
1.91341913 2.82242155 16.69013977
1.96117401 2.77432418 16.61972046
1.86569405 2.87048960 16.69013977
1.91341949 2.82242179 16.61972046
1.86569393 2.87048960 16.61971855
1.91341913 2.82242155 16.54929733
1.91341937 2.82242155 16.47887421
1.96117413 2.77432394 16.47887421
1.96117401 2.77432418 16.40845108
1.91341925 2.82242155 16.40845108
1.91341937 2.82242155 16.33802795
1.86569405 2.87048960 16.33802795
1.91341925 2.82242155 16.26760483
1.91341937 2.82242155 16.19718170
1.86569405 2.87048960 16.26760483
1.96117425 2.77432394 16.19718170
1.91341925 2.82242155 16.12676048
1.86569405 2.87048960 16.19718170
1.91341937 2.82242155 16.05633926
1.86569405 2.87048960 16.05633926
1.96117401 2.77432418 15.98591709
1.96117413 2.77432394 15.91549301
1.91341913 2.82242155 15.98591709
1.91341937 2.82242155 15.91549301
1.91341937 2.82242155 15.77464867
1.86569405 2.87048960 15.77464867
1.91341925 2.82242155 15.70422554
1.86569405 2.87048960 15.70422554
1.96117413 2.77432394 15.63380241
1.91341937 2.82242155 15.63380241
1.86569405 2.87048960 15.63380241
1.91341913 2.82242155 15.56338215
1.91341937 2.82242155 15.49295807
1.86569405 2.87048960 15.49295807
1.91341937 2.82242155 15.35211182
1.91341913 2.82242155 15.28169060
1.91341937 2.82242155 15.21126747
1.86569405 2.87048960 15.28169060
1.86569405 2.87048960 15.07042217
1.96117401 2.77432418 15.07042313
1.96117401 2.77432418 15.00000000
1.96117401 2.77432418 14.92957973
1.91341925 2.82242155 15.00000000
1.91341913 2.82242155 14.92957973
1.91341913 2.82242155 14.85915565
1.96117413 2.77432394 14.78873158
1.91341937 2.82242155 14.78873158
1.96117401 2.77432418 14.71830940
1.91341925 2.82242155 14.71830940
1.91341913 2.82242155 14.64788818
1.91341937 2.82242179 14.57746506
1.96117413 2.77432394 14.50704193
1.86569428 2.87048960 14.57746506
1.91341937 2.82242155 14.50704193
1.96117413 2.77432394 14.36619759
1.91341937 2.82242155 14.36619759
1.91341913 2.82242155 14.43662071
1.96117401 2.77432418 14.29577732
1.91341937 2.82242179 14.29577637
1.91341937 2.82242179 14.22535324
1.86569405 2.87048960 14.36619759
1.86569405 2.87048960 14.22535229
1.96117401 2.77432418 14.15493011
1.91341937 2.82242179 14.15493011
1.96117413 2.77432394 14.08450699
1.91341937 2.82242179 14.01408386
1.86569405 2.87048960 14.08450699
1.91341937 2.82242155 13.94366169
1.86569428 2.87048960 14.01408386
1.86569405 2.87048960 13.94366169
1.96117413 2.77432394 13.94366169
1.86569405 2.87048960 13.87323952
1.86569393 2.87048960 13.80281734
1.91341937 2.82242179 13.73239517
1.96117413 2.77432394 13.66197205
1.91341937 2.82242155 13.66197205
1.86569405 2.87048960 13.66197205
1.91341937 2.82242179 13.59155083
1.91341937 2.82242155 13.52112675
1.96117413 2.77432394 13.38028145
1.86569405 2.87048960 13.52112675
1.91341925 2.82242155 13.30985928
1.86569405 2.87048960 13.30985928
1.86569393 2.87048960 13.23943710
1.96117401 2.77432418 13.23943901
1.96117401 2.77432418 13.16901588
1.91341937 2.82242155 13.09859180
1.91341937 2.82242179 13.16901588
1.96117401 2.77432418 13.02816963
1.86569405 2.87048960 12.95774651
1.96117401 2.77432418 12.88732433
1.96117413 2.77432394 12.81690121
1.91341937 2.82242179 12.88732433
1.91341937 2.82242155 12.81690121
1.96117401 2.77432418 12.74647903
1.91341925 2.82242155 12.74647903
1.91341937 2.82242155 12.67605686
1.86569405 2.87048960 12.67605686
1.91341937 2.82242179 12.60563469
1.91341937 2.82242155 12.53521156
1.86569428 2.87048960 12.60563469
1.96117413 2.77432394 12.39436626
1.86569405 2.87048960 12.39436626
1.96117401 2.77432418 12.32394409
1.91341937 2.82242155 12.39436626
1.91341937 2.82242179 12.32394600
1.96117401 2.77432418 12.25352192
1.91341937 2.82242179 12.25352192
1.96117401 2.77432418 12.18309879
1.86569405 2.87048960 12.25352097
1.91341925 2.82242155 12.18309975
1.91341937 2.82242155 12.11267662
1.96117401 2.77432418 11.90141106
1.91341937 2.82242179 11.90140915
1.86569405 2.87048960 11.97183132
1.86569428 2.87048960 11.90141106
1.86569405 2.87048960 11.83098602
1.91341937 2.82242179 11.83098698
1.91341937 2.82242179 11.76056290
1.91341937 2.82242179 11.61971951
1.96117413 2.77432394 11.54929543
1.86569428 2.87048960 11.61971951
1.86569405 2.87048960 11.54929543
1.91341937 2.82242155 11.54929543
1.96117401 2.77432418 11.40845203
1.91341925 2.82242155 11.47887325
1.86569405 2.87048960 11.47887325
1.91341913 2.82242155 11.40845203
1.96117413 2.77432394 11.26760483
1.86569405 2.87048960 11.33802795
1.86569405 2.87048960 11.26760483
1.91341937 2.82242155 11.26760483
1.91341913 2.82242155 11.19718456
1.86569405 2.87048960 11.19718456
1.96117401 2.77432418 10.98591709
1.91341937 2.82242179 11.05633736
1.86569405 2.87048960 10.98591518
1.96117413 2.77432394 10.84507179
1.91341925 2.82242155 10.84507179
1.96117401 2.77432418 10.77464867
1.96117401 2.77432418 10.70422554
1.91341913 2.82242155 10.70422554
1.91341925 2.82242155 10.63380241
1.96117401 2.77432418 10.56338120
1.91341937 2.82242155 10.42253494
1.91341913 2.82242155 10.35211372
1.91341424 2.82242680 10.28168678
1.86568296 2.87050056 10.28169155
1.96106040 2.77443838 10.21111774
1.91306460 2.82277918 10.21111774
1.90584791 2.83004737 10.14125443
1.86016500 2.87445688 10.14765358
1.91306067 2.82278299 10.07027340
1.86557019 2.87061429 10.00000000
2.00329804 2.72137046 20.00000000
1.96126378 2.77423382 20.00000000
2.00339293 2.72125125 19.93008614
1.96117926 2.77431870 19.92958450
2.00339055 2.72125435 19.85931778
2.00329804 2.72137070 19.78873634
1.96117544 2.77432275 19.85915565
2.00329566 2.72137332 19.71830940
1.96117413 2.77432394 19.71830940
2.00329566 2.72137332 19.64788628
1.96117401 2.77432418 19.64788628
2.00329566 2.72137332 19.50704193
2.00329566 2.72137332 19.43661880
2.00329566 2.72137332 19.36619759
1.96117425 2.77432394 19.43662071
2.00329566 2.72137332 19.29577446
1.96117413 2.77432394 19.29577446
2.00329590 2.72137332 19.22535324
2.00329566 2.72137332 19.15493011
2.04536939 2.66845226 19.01408386
1.96117413 2.77432394 19.01408386
2.00329566 2.72137332 18.87323952
1.96117401 2.77432418 18.94366074
1.96117401 2.77432418 18.80281830
2.00329566 2.72137332 18.66197205
2.04536939 2.66845250 18.59154892
1.96117401 2.77432418 18.66197205
2.00329566 2.72137332 18.59154892
2.00329566 2.72137332 18.52112579
1.96117413 2.77432394 18.59154892
2.00329566 2.72137332 18.45070267
2.00329566 2.72137332 18.30986023
1.96117401 2.77432418 18.38028145
2.04536939 2.66845250 18.16901398
2.00329566 2.72137332 18.16901398
2.04536939 2.66845226 18.02816963
2.00329590 2.72137332 18.09859085
2.00329566 2.72137332 18.02816963
2.04536915 2.66845274 17.95774651
2.04536915 2.66845250 17.88732338
2.00329566 2.72137332 17.95774651
1.96117401 2.77432418 17.95774651
1.96117401 2.77432418 17.88732529
2.00329566 2.72137332 17.88732529
2.00329590 2.72137332 17.81690216
2.00329566 2.72137332 17.74647903
1.96117401 2.77432418 17.81690216
2.00329590 2.72137332 17.67605591
2.00329566 2.72137332 17.60563469
2.04536939 2.66845250 17.60563469
2.04536963 2.66845250 17.53521156
2.00329566 2.72137332 17.53521156
1.96117401 2.77432418 17.53521156
2.00329566 2.72137332 17.46478844
2.04536915 2.66845250 17.39436531
2.00329566 2.72137332 17.39436531
2.04536939 2.66845250 17.32394218
2.04536939 2.66845226 17.25352097
2.00329566 2.72137332 17.25352097
1.96117425 2.77432394 17.32394218
2.00329566 2.72137332 17.18309975
2.04536939 2.66845226 17.18309975
1.96117425 2.77432394 17.18309975
2.00329566 2.72137332 17.11267662
2.00329566 2.72137332 17.04225349
2.04536915 2.66845250 16.97183228
2.00329590 2.72137332 16.97183228
2.04536939 2.66845250 16.90140915
2.00329566 2.72137332 16.83098602
1.96117401 2.77432418 16.83098602
2.00329566 2.72137332 16.76056290
2.00329590 2.72137332 16.69013977
1.96117413 2.77432394 16.76056290
2.00329590 2.72137332 16.54929733
1.96117401 2.77432418 16.54929733
2.04536915 2.66845250 16.40845108
2.00329566 2.72137332 16.47887421
2.00329566 2.72137332 16.40845108
2.04536939 2.66845250 16.33802795
2.00329566 2.72137332 16.33802795
1.96117413 2.77432394 16.33802795
2.04536915 2.66845250 16.26760483
2.04536939 2.66845250 16.19718170
2.00329566 2.72137332 16.26760483
1.96117401 2.77432418 16.26760483
2.04536939 2.66845226 16.05633926
2.00329566 2.72137332 16.12676048
2.00329566 2.72137332 16.05633926
1.96117413 2.77432394 16.05633926
2.04536915 2.66845250 15.98591709
2.00329590 2.72137332 15.84507179
1.96117413 2.77432394 15.77464867
1.96117401 2.77432418 15.70422554
2.04536939 2.66845250 15.63380241
2.00329566 2.72137332 15.49295807
1.96117401 2.77432418 15.56338120
1.96117413 2.77432394 15.49295807
2.00329566 2.72137332 15.42253494
2.00329566 2.72137332 15.35211182
1.96117401 2.77432418 15.42253494
1.96117413 2.77432394 15.35211182
2.04536963 2.66845250 15.28169060
2.00329566 2.72137332 15.21126747
2.04536915 2.66845250 15.07042217
2.00329566 2.72137332 15.14084435
1.96117413 2.77432394 15.21126747
1.96117401 2.77432418 15.14084435
2.00329566 2.72137332 15.07042313
2.00329590 2.72137332 14.92957973
2.04536915 2.66845250 14.85915565
1.96117401 2.77432418 14.85915565
2.04536915 2.66845274 14.71830940
2.00329566 2.72137332 14.78873158
2.00329590 2.72137332 14.71830940
1.96117401 2.77432418 14.64788818
2.00329590 2.72137332 14.64788818
2.04536915 2.66845250 14.43662071
2.00329566 2.72137332 14.50704193
2.00329590 2.72137332 14.43662071
2.00329566 2.72137332 14.36619759
1.96117401 2.77432418 14.22535324
2.04536915 2.66845250 14.22535229
2.00329566 2.72137332 14.22535324
2.00329542 2.72137356 14.15493011
2.04536939 2.66845226 14.08450699
2.04536939 2.66845226 14.01408386
2.00329542 2.72137356 14.01408386
2.04536939 2.66845250 13.94366169
2.00329566 2.72137332 13.94366169
2.04536915 2.66845274 13.87323952
2.04536915 2.66845250 13.80281734
1.96117401 2.77432418 13.87323952
1.96117401 2.77432418 13.80281830
2.00329590 2.72137332 13.80281830
2.00329542 2.72137356 13.73239517
2.00329566 2.72137332 13.66197205
2.04536939 2.66845250 13.66197205
2.04536939 2.66845250 13.52112675
2.00329566 2.72137332 13.52112675
2.04536915 2.66845250 13.45070457
1.96117413 2.77432394 13.52112675
2.04536939 2.66845250 13.38028145
2.00329542 2.72137356 13.45070457
1.96117401 2.77432418 13.45070457
2.00329566 2.72137332 13.38028145
2.04536915 2.66845274 13.30985928
2.00329566 2.72137332 13.09859180
1.96117413 2.77432394 13.09859180
2.04536939 2.66845226 12.95774651
2.00329566 2.72137332 12.95774841
1.96117401 2.77432418 12.95774841
2.00329542 2.72137356 12.88732433
2.00329566 2.72137332 12.81690121
2.00329590 2.72137332 12.74647903
2.00329566 2.72137332 12.67605686
1.96117413 2.77432394 12.67605686
2.04536939 2.66845226 12.67605686
2.00329542 2.72137356 12.60563469
2.04536939 2.66845250 12.53521156
2.04536939 2.66845250 12.39436626
2.00329542 2.72137356 12.46478844
1.96117413 2.77432394 12.53521156
1.96117401 2.77432418 12.46478939
2.00329566 2.72137332 12.39436626
2.04536915 2.66845250 12.32394409
2.04536915 2.66845250 12.25352097
2.00329566 2.72137332 12.25352192
2.00329590 2.72137332 12.18309975
1.96117413 2.77432394 12.11267662
2.04536939 2.66845226 12.11267662
2.00329566 2.72137332 12.11267662
1.96117401 2.77432418 12.04225445
2.00329566 2.72137332 11.97183132
1.96117413 2.77432394 11.97183132
2.04536939 2.66845250 11.97183132
2.04536915 2.66845250 11.90141106
2.04536915 2.66845250 11.83098602
2.00329566 2.72137332 11.83098698
2.04536915 2.66845250 11.76056290
2.00329566 2.72137332 11.69014072
1.96117413 2.77432418 11.83098698
2.04536939 2.66845250 11.54929543
2.00329542 2.72137356 11.61971951
1.96117413 2.77432394 11.69014072
2.00329566 2.72137332 11.54929543
2.04536915 2.66845250 11.40845108
2.00329566 2.72137332 11.33802795
1.96117401 2.77432418 11.33802795
2.00329566 2.72137332 11.26760483
2.00329590 2.72137332 11.19718456
1.96117401 2.77432418 11.19718456
1.96117413 2.77432394 11.12676048
2.00329566 2.72137332 11.12676048
2.00329566 2.72137332 11.05633736
2.00329590 2.72137332 10.91549301
2.04536939 2.66845250 10.84507084
2.00329590 2.72137332 10.84507179
2.00329566 2.72137332 10.77464867
2.00329590 2.72137332 10.56338120
2.00329542 2.72137356 10.49295807
1.96117401 2.77432418 10.49295807
2.00329566 2.72137332 10.42253494
1.96117413 2.77432394 10.42253494
2.00329590 2.72137332 10.35211372
2.00328994 2.72138071 10.28169537
1.96117401 2.77432418 10.35211372
1.96117139 2.77432680 10.28169155
2.00315952 2.72154450 10.21148682
2.04126906 2.67361712 10.14765167
2.00306726 2.72166061 10.14125443
2.04499865 2.66892695 10.08139038
2.00319409 2.72150135 10.07027340
1.96106648 2.77443242 10.05951500
2.00329804 2.72137046 10.00000000
1.96126378 2.77423382 10.00000000
2.04533219 2.66850710 20.00000000
2.04545617 2.66832495 19.94048882
2.15650964 2.49839926 20.00000000
2.19152522 2.44039798 19.85914803
2.12148190 2.55642009 20.00000000
2.15661931 2.49821758 19.85858345
2.12487507 2.55079937 19.85234833
2.12149763 2.55639410 19.71830940
2.19152522 2.44039798 19.71831131
2.19152236 2.44040322 19.64788628
2.15650940 2.49839950 19.64788628
2.19152379 2.44040084 19.57746887
2.19152212 2.44040346 19.43662071
2.12147570 2.55642915 19.50704193
2.15650845 2.49840093 19.36619759
2.15650845 2.49840117 19.29577446
2.12148738 2.55641055 19.29577065
2.19152188 2.44040346 19.22535324
2.15650845 2.49840117 19.22535324
2.12147570 2.55642962 19.22535324
2.19152188 2.44040346 19.08450699
2.15650916 2.49839997 19.08450699
2.12148976 2.55640674 19.15492630
2.15650916 2.49839973 19.01408386
2.12149024 2.55640602 18.87323761
2.15650916 2.49839997 18.87323952
2.15650916 2.49839973 18.80281830
2.12148976 2.55640674 18.73239136
2.15650845 2.49840093 18.66197205
2.15650845 2.49840117 18.52112579
2.19152188 2.44040346 18.52112579
2.12147546 2.55642986 18.52112579
2.19152212 2.44040346 18.30986023
2.12147546 2.55642962 18.38028145
2.12149072 2.55640554 18.30986023
2.15650868 2.49840069 18.02816963
2.15650916 2.49839973 17.95774651
2.12149119 2.55640459 18.02816963
2.15650916 2.49839973 17.88732529
2.19152212 2.44040322 17.81690216
2.15650892 2.49840021 17.81690216
2.12149119 2.55640459 17.74647903
2.15650892 2.49840045 17.74647903
2.15650916 2.49839973 17.67605591
2.15650916 2.49839997 17.60563469
2.12148976 2.55640674 17.60563278
2.15650868 2.49840069 17.46478844
2.19152212 2.44040322 17.39436531
2.15650916 2.49839973 17.32394218
2.19152212 2.44040346 17.18309975
2.12147570 2.55642915 17.25352097
2.15650868 2.49840069 17.18309975
2.12149119 2.55640459 17.18309975
2.15650916 2.49839973 17.11267662
2.15650916 2.49839973 17.04225349
2.15650940 2.49839950 16.97183228
2.12148976 2.55640674 16.90140724
2.15650868 2.49840069 16.76056290
2.19152212 2.44040346 16.76056290
2.12149072 2.55640554 16.76056290
2.12147593 2.55642915 16.69013977
2.15650845 2.49840093 16.54929733
2.15650845 2.49840093 16.47887421
2.15650916 2.49839973 16.40845108
2.19152403 2.44040012 16.33803368
2.15650916 2.49839973 16.33802795
2.12149143 2.55640411 16.40845108
2.15650916 2.49839997 16.26760483
2.19152212 2.44040346 16.19718170
2.12148881 2.55640841 16.33802223
2.12149143 2.55640411 16.26760483
2.15650916 2.49839997 16.19718170
2.19152188 2.44040346 16.12676048
2.15650845 2.49840093 16.12676048
2.12148976 2.55640674 16.19717979
2.15650868 2.49840069 16.05633926
2.19152212 2.44040346 15.91549301
2.15650916 2.49839973 15.98591709
2.12149119 2.55640459 16.05633926
2.15650916 2.49839997 15.91549301
2.15650868 2.49840045 15.84507275
2.15650892 2.49840045 15.77464867
2.19152212 2.44040322 15.70422554
2.12149119 2.55640459 15.77464867
2.12148857 2.55640864 15.63379765
2.15650916 2.49839973 15.49295807
2.15650916 2.49839973 15.56338120
2.19152403 2.44040012 15.49295807
2.12148976 2.55640674 15.49295425
2.19152212 2.44040346 15.35211182
2.12147593 2.55642915 15.42253494
2.19152188 2.44040346 15.28169060
2.15650868 2.49840069 15.35211182
2.15650868 2.49840069 15.21126747
2.19152212 2.44040346 15.21126747
2.19152212 2.44040322 15.14084435
2.15650940 2.49839950 15.14084435
2.15650916 2.49840021 15.07042313
2.12148762 2.55641031 15.07042217
2.19152236 2.44040322 15.00000000
2.19152379 2.44040060 14.92958355
2.15650845 2.49840093 15.00000000
2.15650916 2.49839997 14.78873158
2.12148976 2.55640674 14.78872967
2.19152212 2.44040346 14.78873158
2.15650868 2.49840045 14.71830940
2.12147570 2.55642962 14.71830940
2.15650845 2.49840093 14.64788818
2.19152212 2.44040346 14.50704193
2.12148762 2.55641031 14.64788723
2.12148762 2.55641031 14.50704193
2.19152212 2.44040322 14.43662071
2.15650868 2.49840069 14.36619759
2.19152236 2.44040322 14.29577732
2.15650868 2.49840045 14.29577637
2.12147808 2.55642557 14.22535896
2.19152379 2.44040060 14.22535706
2.15650845 2.49840117 14.15493202
2.19152403 2.44040012 14.08451271
2.15650892 2.49840045 14.08450699
2.19152260 2.44040298 14.01408577
2.15650940 2.49839950 14.01408386
2.19152403 2.44039989 13.94366550
2.15650940 2.49839950 13.94366169
2.12149191 2.55640364 13.94366169
2.19152260 2.44040298 13.87324142
2.15650940 2.49839950 13.87324142
2.12149143 2.55640411 13.87323952
2.12148976 2.55640674 13.80281353
2.12149072 2.55640554 13.66197205
2.19152212 2.44040346 13.66197205
2.15650868 2.49840069 13.66197205
2.19152188 2.44040346 13.59155083
2.15650868 2.49840045 13.59155083
2.15650868 2.49840069 13.52112675
2.19152212 2.44040346 13.52112675
2.15650916 2.49839973 13.38028145
2.15650940 2.49839950 13.45070457
2.15650845 2.49840093 13.30985928
2.15650845 2.49840093 13.23943901
2.12149143 2.55640411 13.16901588
2.19152212 2.44040322 13.02817154
2.15650940 2.49839950 13.02816963
2.15650940 2.49839950 12.88732529
2.15650940 2.49839950 12.81690121
2.12149191 2.55640364 12.81690121
2.15650916 2.49839973 12.74647903
2.19152212 2.44040322 12.74648094
2.19152212 2.44040346 12.67605686
2.12149191 2.55640364 12.67605686
2.19152212 2.44040346 12.60563469
2.15650916 2.49839973 12.67605686
2.15650916 2.49839973 12.60563469
2.12149143 2.55640411 12.60563469
2.15650868 2.49840069 12.39436626
2.15650845 2.49840117 12.46478844
2.19152188 2.44040346 12.25352192
2.15650845 2.49840093 12.25352192
2.12147593 2.55642915 12.18309879
2.12149119 2.55640459 12.11267662
2.19152188 2.44040346 12.04225445
2.12148857 2.55640864 11.97182655
2.15650916 2.49839997 11.90140915
2.19152188 2.44040346 11.83098698
2.15650916 2.49840021 11.83098698
2.19152188 2.44040346 11.76056290
2.15650845 2.49840117 11.76056290
2.12147570 2.55642915 11.76056290
2.19152212 2.44040346 11.54929543
2.12149072 2.55640554 11.69014072
2.15650845 2.49840117 11.54929543
2.19152212 2.44040370 11.47887325
2.15650845 2.49840117 11.47887325
2.12148929 2.55640745 11.40845203
2.19152212 2.44040370 11.40845108
2.15650845 2.49840117 11.40845203
2.15650845 2.49840093 11.33802795
2.15650868 2.49840069 11.26760483
2.12147593 2.55642915 11.33802795
2.19152212 2.44040346 11.12676048
2.15650916 2.49839973 11.12676048
2.12149119 2.55640459 11.12676048
2.19152212 2.44040322 11.05633736
2.15650845 2.49840117 10.91549301
2.12147808 2.55642557 10.98592186
2.15650868 2.49840045 10.84507275
2.15650868 2.49840045 10.70422554
2.19152212 2.44040370 10.56338024
2.15650845 2.49840140 10.56338215
2.15650845 2.49840093 10.63380241
2.19152403 2.44040012 10.42253494
2.12147808 2.55642557 10.56338692
2.12147546 2.55642962 10.49295807
2.15650892 2.49840045 10.42253494
2.19152212 2.44040322 10.35211468
2.12149072 2.55640531 10.28169060
2.19152212 2.44040346 10.28169060
2.19152212 2.44040322 10.21126747
2.15650916 2.49839973 10.28169060
2.19152308 2.44040155 10.14084816
2.15650749 2.49840283 10.21126461
2.15642977 2.49853134 10.14068222
2.12139201 2.55655289 10.21110916
2.15643024 2.49853086 10.06991386
2.15650964 2.49839926 10.00000000
2.12139130 2.55655336 10.05951118
2.12148190 2.55642009 10.00000000
2.22408199 2.38106918 20.00000000
2.25663066 2.32175279 19.92957687
2.19153738 2.44037819 20.00000000
2.19152284 2.44040251 19.92957306
2.25663066 2.32175279 19.78873253
2.22408128 2.38107038 19.78873253
2.19152474 2.44039893 19.78872299
2.25662756 2.32175827 19.71830750
2.22408128 2.38107038 19.71830940
2.22408128 2.38107014 19.64788628
2.25663066 2.32175279 19.64788628
2.25663161 2.32175016 19.57746315
2.22408128 2.38107014 19.57746506
2.25663161 2.32175016 19.43662071
2.22408128 2.38107038 19.43661880
2.25663066 2.32175255 19.36619759
2.22408128 2.38107038 19.36619759
2.22408128 2.38107038 19.29577446
2.19152212 2.44040346 19.29577446
2.19152212 2.44040346 19.15493011
2.22408104 2.38107061 19.08450699
2.22408128 2.38107061 18.87323952
2.19152212 2.44040346 19.01408386
2.19152212 2.44040346 18.94366074
2.25662661 2.32176018 18.87324142
2.22408128 2.38107061 18.73239517
2.19152212 2.44040370 18.87323952
2.25662661 2.32176018 18.73239517
2.19152212 2.44040346 18.73239517
2.25662661 2.32176018 18.59154892
2.25663066 2.32175279 18.52112579
2.22408128 2.38107038 18.52112579
2.25663161 2.32175016 18.45070267
2.22408152 2.38107014 18.45070267
2.19152212 2.44040346 18.59154892
2.19152212 2.44040346 18.45070267
2.22408128 2.38107038 18.30986023
2.19152188 2.44040346 18.38028145
2.25663161 2.32175016 18.30986023
2.25663066 2.32175255 18.23943710
2.22408128 2.38107038 18.23943710
2.22408152 2.38107014 18.16901398
2.25663161 2.32175040 18.16901398
2.22408104 2.38107038 18.09859085
2.19152403 2.44040012 18.16901970
2.25663161 2.32175040 18.02816963
2.19152212 2.44040346 18.02816963
2.22408104 2.38107061 17.95774651
2.25662661 2.32176018 17.88732529
2.22408104 2.38107061 17.88732529
2.19152212 2.44040370 17.88732338
2.25662661 2.32176018 17.74647903
2.22408104 2.38107061 17.81690216
2.19152403 2.44040012 17.74648476
2.22408104 2.38107038 17.67605591
2.22408128 2.38107038 17.60563469
2.19152212 2.44040346 17.60563469
2.25663066 2.32175279 17.53521156
2.25663161 2.32175040 17.46478844
2.19152212 2.44040346 17.46478844
2.25663161 2.32175016 17.32394218
2.22408152 2.38106990 17.32394218
2.25663185 2.32174993 17.25352097
2.22408152 2.38106990 17.25352097
2.22408128 2.38107038 17.18309975
2.19152403 2.44040012 17.32394791
2.25663066 2.32175279 17.11267662
2.25662875 2.32175612 17.04225349
2.22408128 2.38107061 17.04225349
2.19152188 2.44040346 17.11267662
2.19152212 2.44040346 17.04225349
2.22408104 2.38107038 16.97183228
2.22408152 2.38107014 16.90140915
2.19152403 2.44040012 16.90141487
2.22408128 2.38107038 16.83098602
2.25663066 2.32175279 16.83098602
2.25662661 2.32176018 16.76056290
2.22408128 2.38107061 16.76056290
2.22408104 2.38107061 16.69013977
2.22408104 2.38107061 16.61972046
2.19152379 2.44040084 16.61972427
2.19152212 2.44040322 16.54929733
2.22408128 2.38107061 16.47887421
2.22408104 2.38107061 16.40845108
2.19152212 2.44040346 16.47887421
2.25662661 2.32176018 16.33802795
2.22408128 2.38107038 16.33802795
2.25663161 2.32175016 16.19718170
2.22408128 2.38107014 16.26760483
2.25663161 2.32175016 16.05633926
2.25663161 2.32175040 15.91549301
2.19152212 2.44040346 16.05633926
2.25663066 2.32175279 15.84507179
2.19152212 2.44040322 15.84507370
2.22408104 2.38107038 15.77464962
2.19152403 2.44040012 15.77464867
2.25663161 2.32175040 15.63380241
2.22408128 2.38107014 15.70422554
2.22408128 2.38107038 15.63380241
2.19152212 2.44040346 15.63380241
2.22408128 2.38107038 15.49295807
2.22408128 2.38107014 15.42253494
2.19152212 2.44040322 15.42253494
2.25663066 2.32175279 15.28169060
2.22408104 2.38107061 15.28169060
2.25662661 2.32176018 15.21126747
2.22408128 2.38107061 15.21126747
2.25662661 2.32176018 15.14084435
2.25662661 2.32176018 15.07042217
2.22408128 2.38107061 15.14084435
2.22408152 2.38107038 15.07042313
2.19152379 2.44040060 15.07042694
2.25663161 2.32175040 14.92957783
2.22408128 2.38107014 15.00000000
2.25663066 2.32175255 14.85915565
2.22408128 2.38107014 14.85915565
2.19152212 2.44040322 14.85915565
2.22408128 2.38107038 14.78873158
2.22408104 2.38107061 14.71830940
2.25662661 2.32176018 14.64788818
2.22408104 2.38107061 14.64788818
2.22408152 2.38107085 14.57746506
2.25662661 2.32176018 14.57746506
2.22408128 2.38107061 14.50704193
2.19152379 2.44040060 14.64789200
2.19152212 2.44040322 14.57746506
2.25663066 2.32175279 14.43662071
2.22408104 2.38107038 14.43662071
2.22408152 2.38107014 14.36619759
2.22408128 2.38107038 14.29577637
2.19152403 2.44040012 14.36620331
2.25662971 2.32175374 14.22534943
2.22408152 2.38107038 14.22535324
2.22408128 2.38107038 14.01408577
2.25663161 2.32175040 13.94366169
2.22408152 2.38107014 13.94366169
2.22408104 2.38107038 13.87324142
2.25662661 2.32176018 13.80281830
2.19152379 2.44040060 13.80282211
2.22408152 2.38107085 13.73239517
2.19152212 2.44040322 13.73239517
2.22408128 2.38107061 13.66197205
2.25662661 2.32176018 13.66197205
2.22408128 2.38107061 13.59155083
2.25662661 2.32176018 13.52112675
2.22408128 2.38107061 13.52112675
2.25662899 2.32175517 13.38027573
2.22408152 2.38107038 13.38028336
2.22408128 2.38107061 13.45070457
2.19152403 2.44040012 13.38028717
2.22408104 2.38107061 13.30985928
2.25662661 2.32176018 13.23943901
2.19152212 2.44040322 13.30985928
2.22408128 2.38107038 13.09859180
2.19152188 2.44040346 13.23943901
2.25663161 2.32175040 13.09859180
2.25662661 2.32176018 13.02816963
2.25663161 2.32175040 12.95774651
2.22408152 2.38107038 13.02816963
2.19152212 2.44040346 13.09859180
2.19152379 2.44040060 12.95775223
2.25663066 2.32175279 12.88732433
2.25662661 2.32176018 12.81690121
2.22408152 2.38107085 12.81690216
2.19152403 2.44040012 12.81690121
2.22408104 2.38107061 12.74647903
2.25662661 2.32176018 12.67605686
2.22408128 2.38107061 12.67605686
2.25662899 2.32175517 12.53520584
2.22408128 2.38107061 12.60563469
2.19152212 2.44040346 12.53521156
2.25663066 2.32175279 12.46478939
2.22408152 2.38107038 12.46478844
2.19152212 2.44040346 12.39436626
2.22408128 2.38107038 12.39436626
2.25662661 2.32176018 12.25352097
2.22408152 2.38107085 12.32394409
2.19152188 2.44040346 12.32394409
2.22408128 2.38107061 12.25352192
2.25662661 2.32176018 12.11267662
2.22408128 2.38107061 12.11267662
2.22408128 2.38107038 11.97183132
2.22408128 2.38107061 12.04225445
2.19152212 2.44040346 12.11267662
2.19152212 2.44040346 11.97183132
2.22408152 2.38107085 11.90140915
2.22408152 2.38107061 11.83098698
2.22408152 2.38107038 11.76056290
2.19152212 2.44040346 11.69014072
2.22408152 2.38107061 11.61971951
2.22408128 2.38107061 11.54929543
2.22408104 2.38107038 11.47887325
2.25663161 2.32175040 11.40845108
2.22408104 2.38107038 11.40845203
2.22408128 2.38107038 11.33802795
2.22408128 2.38107038 11.26760483
2.25662661 2.32176018 11.12676048
2.22408128 2.38107061 11.12676048
2.19152212 2.44040346 11.26760483
2.22408152 2.38107061 11.05633736
2.25662661 2.32176018 10.91549301
2.19152379 2.44040060 10.98592091
2.19152403 2.44040012 10.84507084
2.22408128 2.38107038 10.77464962
2.19152236 2.44040322 10.77464962
2.25663161 2.32175040 10.56338024
2.19152379 2.44040060 10.70422935
2.25662899 2.32175565 10.42253017
2.22408128 2.38107038 10.42253494
2.25662875 2.32175612 10.35211372
2.22408104 2.38107061 10.35211468
