6.51533604 -62.56904602 849.16400146
6.60292482 -62.56722641 849.57067871
6.62192488 -62.23131561 849.56066895
0.75744897 -60.36761856 843.77947998
4.01825523 -61.96044922 845.44781494
6.45229387 -65.25504303 849.71771240
4.25201511 -61.95455551 845.74505615
6.51751614 -65.25466919 850.12902832
4.48360300 -61.94873047 846.01428223
6.62776709 -63.91649246 852.97045898
6.58769083 -63.91894531 853.48590088
6.40851688 -63.92544174 854.15081787
6.23260212 -63.93183136 854.77789307
4.19164991 -63.63071823 845.79260254
4.40530014 -63.62547684 846.07153320
4.84315777 -61.93960953 846.19177246
5.04135704 -61.93473053 846.52832031
6.72226477 -62.56455994 849.98693848
6.82442713 -62.56240082 850.38085938
6.83976221 -62.56252670 850.81024170
5.07014322 -61.59904099 846.50048828
5.55829811 -65.60761261 847.57153320
5.75018597 -65.60338593 847.89599609
5.86902523 -65.60145569 848.27929688
4.77214193 -63.61601639 846.29815674
4.95766115 -63.61162949 846.58953857
5.34382010 -61.92707443 846.78076172
5.83075619 -63.25547409 847.82409668
3.36893606 -60.63729095 844.99572754
3.73832798 -60.62795639 845.18939209
4.03258896 -60.62055588 845.42266846
5.33921623 -61.59220886 846.77636719
5.52731514 -61.58753586 847.07379150
6.03212976 -65.59810638 848.61523438
4.29417515 -60.61389160 845.67742920
6.84295321 -62.56312180 851.31243896
6.86364603 -62.56322861 851.81292725
6.83361483 -62.56464386 852.29949951
1.15805900 -60.35766220 843.91168213
1.51179898 -60.34875488 844.12701416
6.19063902 -65.59491730 848.96917725
6.30148697 -65.59342957 849.37231445
6.76305008 -62.22798157 849.92730713
6.81296206 -62.22706985 850.38134766
6.83924723 -62.22685623 850.80590820
6.87322092 -62.22646713 851.29760742
6.18104982 -64.60755920 854.84472656
6.96245098 -62.22452545 851.72131348
5.48552704 -61.92357635 847.12139893
6.61038399 -65.25358582 850.54077148
5.63443422 -61.91997528 847.44616699
6.70978117 -65.25226593 850.96972656
6.67919493 -65.25492859 851.45330811
6.72108889 -65.25553131 851.92926025
6.65787888 -65.25927734 852.46124268
6.60181713 -65.26283264 852.99340820
5.18070078 -63.60623932 846.90258789
5.44827414 -63.59946060 847.15045166
5.67807913 -63.59393311 847.45062256
5.82963181 -63.59058762 847.81744385
5.94490099 -63.58829117 848.20562744
6.10510683 -63.58460999 848.53656006
6.42119694 -64.24824524 849.24908447
4.31023884 -60.94836426 845.68902588
3.29146910 -62.98376846 845.05474854
5.85166788 -61.91460037 847.76611328
6.49239206 -65.26808929 853.57263184
6.06065798 -61.90934753 848.09997559
5.67114592 -61.58393478 847.42248535
5.88085985 -61.57869339 847.76330566
-2.16806006 -59.76764679 843.72644043
6.76570082 -62.56706238 852.81848145
6.66177702 -62.57056046 853.41076660
3.03276396 -61.31571198 844.79833984
6.86884594 -62.22747803 852.26977539
6.09313107 -61.57344437 848.08117676
6.23601007 -61.56990051 848.41778564
3.39397597 -61.30646133 844.98583984
4.59990311 -60.60615921 845.92797852
6.26861000 -63.58104324 848.90454102
4.82788515 -60.60034561 846.20410156
5.04173183 -60.59486771 846.50903320
6.35198689 -65.27431488 854.18731689
6.12031889 -65.28346252 854.88232422
4.56340694 -60.94205093 845.93267822
4.86657906 -60.93435287 846.17309570
5.10375690 -60.92835617 846.47045898
5.99587584 -63.25168610 848.16314697
5.30871296 -60.92309570 846.77416992
6.54987097 -64.24584198 849.65246582
6.44033480 -65.59082031 849.72991943
3.66633201 -62.97412109 845.24945068
6.82303715 -62.22922516 852.77813721
6.71359491 -62.23268509 853.36529541
-2.90427899 -59.44906616 843.82696533
-2.14124799 -59.43108749 843.69659424
-1.48269796 -59.41543198 843.64636230
6.17271614 -63.24751282 848.49237061
6.51665497 -62.57517624 854.02630615
6.41198397 -61.56554031 848.73803711
6.50871086 -61.56317520 849.17889404
6.65616703 -61.55953979 849.52960205
-1.45178998 -59.75062180 843.61724854
-0.82585102 -59.73546219 843.60742188
6.43851709 -63.57707977 849.22564697
5.35442209 -60.58707809 846.73260498
5.52597618 -60.91758347 847.06616211
5.52246714 -60.58263016 847.07574463
6.74735403 -61.55741882 849.93634033
6.85685587 -61.55476761 850.33642578
6.26742220 -61.90421677 848.40173340
-0.85421401 -59.40052032 843.61761475
6.51970196 -65.59011078 850.12841797
6.58091497 -65.59011841 850.57263184
6.60028505 -64.24559784 850.06250000
3.64456296 -61.30015945 845.24438477
6.32258701 -62.58120346 854.70501709
-0.27568501 -59.38670731 843.62988281
0.21380600 -59.37494278 843.71166992
2.00836992 -60.33650970 844.19195557
2.32368994 -60.32856750 844.38861084
6.56280422 -62.23722839 853.98681641
6.31280613 -62.24437332 854.71350098
4.01275778 -61.29079819 845.44000244
2.75229692 -60.31793594 844.52526855
3.04630709 -60.31048584 844.78558350
6.40438890 -61.90091324 848.75823975
5.71342278 -60.91278076 847.38952637
3.99800611 -62.96558380 845.48339844
4.19528723 -62.96078873 845.78302002
-0.25729099 -59.72181320 843.60760498
6.64160013 -65.59027100 851.02886963
0.14406200 -59.71197510 843.74578857
-2.14552402 -58.75914383 843.69580078
-1.43142402 -58.74275589 843.59155273
6.51214123 -61.89845657 849.17425537
6.68820810 -65.59068298 851.47381592
6.69699383 -64.24411774 850.48132324
4.27085590 -61.28432465 845.71166992
-0.90520197 -58.73032379 843.65399170
-0.28619301 -58.71587753 843.63604736
0.26355800 -58.70307159 843.65686035
5.89989424 -60.90808868 847.74298096
6.60479403 -61.89629364 849.58404541
6.74276495 -61.89296722 849.94256592
6.83803177 -61.89079666 850.36041260
6.83539104 -61.89117813 850.81750488
6.88848019 -61.55406570 850.78308105
6.87607098 -61.89045334 851.29632568
6.94377613 -61.88908005 851.71563721
6.88514900 -61.89091110 852.23370361
6.96805716 -61.55224991 851.22058105
4.50268507 -62.95291138 846.00555420
-2.92269897 -59.11317825 843.84027100
5.73157215 -60.57728958 847.36254883
6.84877396 -61.89221954 852.76721191
0.71171403 -59.69817352 843.79595947
0.71244001 -58.69228745 843.77294922
1.18186700 -59.68673325 843.90039063
1.15831196 -58.68155289 843.91693115
1.61554003 -59.67602539 844.02716064
1.56860399 -58.67167282 844.05035400
2.00095105 -59.66659164 844.16607666
2.01787400 -58.66092682 844.14837646
0.71354198 -59.36278534 843.80065918
6.69419384 -65.59242249 851.95709229
2.42431998 -59.65618515 844.30871582
6.64504290 -65.59584808 852.47436523
3.38333893 -60.30197144 844.98663330
1.15342295 -59.35215378 843.92156982
1.56210697 -59.34217072 844.06286621
1.99114203 -59.33172607 844.16955566
6.91874981 -61.55368423 851.72985840
3.72964191 -60.29326248 845.19494629
-2.10734200 -60.10232925 843.67285156
6.96105814 -61.55276108 852.16973877
-1.42346299 -60.08571625 843.62609863
6.09999323 -60.90297699 848.05865479
-0.88164300 -60.07250214 843.63977051
-0.27758300 -60.05773163 843.62457275
0.18026499 -60.04648590 843.73773193
0.73037702 -60.03302765 843.78564453
1.16956306 -60.02222061 843.90454102
2.74820590 -59.64802170 844.53753662
3.08087111 -59.63975906 844.75054932
-2.17002606 -59.09570694 843.70971680
-1.47186005 -59.07941437 843.64520264
6.69784880 -61.89651108 853.36962891
6.29320288 -60.89809036 848.35717773
1.54602695 -60.01282883 844.10229492
1.96714306 -60.00242615 844.19787598
6.43907881 -60.89428329 848.71386719
2.45266390 -59.32052612 844.30187988
3.96713805 -60.28727722 845.46820068
6.50826693 -61.90181351 854.01947021
6.39082098 -61.90535355 854.64752197
6.29111481 -63.24505234 848.86962891
4.74885178 -62.94685364 846.29205322
5.04720211 -62.93932724 846.54248047
6.60045004 -60.89015961 849.12481689
2.33680606 -59.99325943 844.38653564
2.75793004 -59.98281479 844.53204346
2.42339706 -58.65117645 844.30273438
-0.87905502 -59.06538391 843.63476563
3.45652604 -59.63046646 844.90228271
6.88664818 -61.55493546 852.72357178
-2.10037208 -58.42216492 843.65124512
6.68790483 -64.24567413 850.97131348
-1.42131603 -58.40663528 843.59039307
6.80595207 -64.24358368 851.37451172
-0.85867900 -58.39358902 843.62145996
-0.25669000 -58.37980652 843.59924316
2.74223900 -59.31316376 844.54809570
3.12346411 -59.30380630 844.71197510
3.76493812 -59.62263870 845.15985107
5.25261784 -62.93422318 846.83416748
4.04288721 -59.61559677 845.39691162
6.71014500 -61.55966949 853.36254883
6.59876680 -61.56268692 853.96875000
6.43915176 -61.56701279 854.59204102
4.32587385 -59.60843658 845.64300537
4.64006376 -59.60063553 845.86767578
6.58236217 -65.59983063 853.01141357
6.46814489 -65.60540771 853.60552979
3.03565502 -59.97570801 844.78210449
3.36755800 -59.96739960 844.98309326
3.74785399 -59.95795441 845.18487549
4.01661396 -59.95113373 845.42077637
2.82846904 -58.64125824 844.47796631
3.08702707 -58.63466644 844.72766113
4.29074812 -60.27914047 845.67205811
4.88254213 -59.59434128 846.14910889
3.52087808 -58.62432098 844.83441162
3.75869203 -58.61805725 845.16772461
6.70270586 -60.88754272 849.47674561
6.27877903 -65.61348724 854.25738525
3.47185493 -59.29520416 844.89624023
3.76362991 -59.28775787 845.14849854
4.07837582 -59.27992630 845.36016846
4.32027388 -59.27366257 845.64654541
4.64128494 -59.26564407 845.87237549
4.90770102 -59.25892639 846.11614990
5.14204216 -59.25277328 846.42541504
5.38754511 -59.24640656 846.70489502
5.61356115 -59.24060440 846.97198486
6.08152914 -65.62178802 854.92309570
5.82807207 -59.23491287 847.30090332
6.04414797 -59.22926712 847.61083984
6.14556694 -59.22615433 848.00872803
-2.11743808 -58.08655548 843.65063477
-1.39507103 -58.07024765 843.57849121
6.43088913 -63.24199677 849.23016357
6.51837301 -63.24043274 849.65588379
6.61145782 -63.23869705 850.05566406
6.79118919 -64.24530792 851.86737061
5.94863176 -60.57175446 847.70251465
6.51003599 -63.57609940 849.65307617
0.27563500 -58.36743164 843.64178467
-2.12998891 -57.75075912 843.66406250
-1.46310198 -57.73582840 843.63494873
6.35797882 -59.22060013 848.28857422
6.50179482 -59.21660995 848.65130615
6.63295984 -59.21283722 849.04473877
6.61348915 -63.57413483 850.04699707
6.70488405 -63.57259369 850.46276855
6.05376291 -60.56893921 848.08447266
6.26258802 -60.56361389 848.39331055
6.44136190 -60.55898666 848.70355225
6.57961082 -60.55531693 849.12713623
4.54665518 -61.27733612 845.93670654
4.04872894 -58.61072540 845.38800049
4.79395580 -61.27107239 846.23114014
6.77971220 -64.24697876 852.34130859
6.64325285 -64.25244904 852.96008301
6.72163820 -63.57318878 850.94122314
6.82049179 -63.57138443 851.34606934
6.56184292 -64.25624084 853.51281738
4.30336094 -59.94385529 845.66790771
4.64375401 -59.93536377 845.87506104
6.41761780 -64.26197815 854.12634277
6.82339096 -63.57229996 851.83129883
6.76377296 -59.20905304 849.43109131
6.86475897 -59.20600510 849.81597900
-0.86933500 -58.05817413 843.62097168
5.45637178 -62.92929840 847.11993408
5.63660479 -62.92506790 847.48419189
0.73922402 -58.35643768 843.75811768
1.20823205 -58.34532166 843.86853027
-0.31218401 -58.04537201 843.64093018
0.23838000 -58.03274918 843.67077637
0.69686699 -58.02193451 843.78900146
-0.27537000 -59.05116653 843.63055420
5.06854916 -61.26409531 846.50213623
6.97507191 -59.20272827 850.19506836
5.30751085 -61.25807953 846.78552246
6.76999712 -63.57493973 852.34045410
6.72166920 -63.23648453 850.46075439
6.76826906 -63.23610306 850.91265869
6.81968212 -63.23555374 851.36169434
6.73684692 -63.57696533 852.88800049
6.67881107 -60.55268860 849.50299072
6.14527988 -64.27149963 854.85571289
6.86674881 -60.54791260 849.81640625
4.60746622 -60.27109909 845.92272949
4.89476299 -59.92895126 846.15765381
5.08575106 -59.92389297 846.47711182
6.77252722 -60.88571167 849.87707520
7.01685381 -59.20085144 850.66992188
5.51981497 -61.25274658 847.07135010
4.32162619 -58.60372925 845.64495850
0.20112200 -59.03978729 843.72210693
4.85531378 -60.26485062 846.17724609
5.36717987 -59.91682816 846.70819092
5.07911110 -59.58910370 846.47467041
6.55371380 -63.58326721 853.49896240
5.35350895 -59.58221436 846.71563721
6.88228798 -60.88285828 850.29315186
6.80299997 -63.23686600 851.83258057
6.75549984 -63.23917770 852.36682129
6.72558117 -63.24098587 852.87750244
6.62965107 -63.24454880 853.43286133
5.85438824 -62.91979218 847.80419922
5.98998690 -62.91665268 848.15570068
6.16749620 -62.91248322 848.48498535
-0.76660001 -57.72038269 843.55139160
-0.32726699 -57.71016693 843.63232422
5.71947813 -61.24767303 847.38403320
5.54238605 -59.91224289 847.04644775
5.80549288 -59.90546036 847.31817627
6.43768406 -63.58780670 854.11901855
5.10905123 -60.25831223 846.45385742
4.64648581 -58.59572601 845.85382080
6.46972322 -63.25010300 854.07720947
4.95784807 -58.58798981 846.07342529
6.30607224 -62.90937042 848.85754395
1.20544100 -58.01014328 843.87213135
0.72258103 -59.02730179 843.78143311
0.28125000 -57.69640732 843.65417480
7.02956390 -59.19977570 851.14630127
5.91947412 -61.24269867 847.73565674
6.11519480 -61.23771286 848.05718994
0.68512398 -57.68688202 843.79144287
5.37402678 -60.25160599 846.71966553
6.44610786 -62.90618134 849.21307373
1.60775399 -58.00046539 844.02130127
6.55899286 -62.90388489 849.63226318
5.54154301 -60.24720383 847.05169678
5.17767477 -58.58208466 846.39538574
6.21845722 -63.59520340 854.77825928
6.62279606 -62.90287399 850.05450439
6.73885822 -62.90038681 850.44970703
6.24211502 -63.25743103 854.75738525
2.07927799 -57.98951721 844.11083984
2.42433596 -57.98102951 844.31005859
1.57831395 -58.33628464 844.03118896
2.78690290 -57.97225571 844.48358154
3.12567997 -57.96396255 844.67565918
6.83026981 -62.89857864 850.84741211
7.07924795 -59.19783783 851.57928467
5.43054819 -58.57561493 846.65899658
1.17508101 -59.01642990 843.89660645
1.60230196 -59.00611115 844.03228760
2.03193402 -58.99577713 844.14593506
3.48838711 -57.95510483 844.87121582
5.66283607 -58.56952286 846.93316650
1.19682705 -57.67500687 843.87359619
3.84104991 -57.94653320 845.06854248
7.07191420 -59.19714355 852.07324219
7.03726006 -59.19707870 852.61273193
5.79994822 -60.24061584 847.31640625
6.87225008 -60.54751205 850.30261230
6.93866396 -60.54558945 850.74890137
7.01811695 -60.54344559 851.17346191
6.98917389 -59.19734573 853.11199951
5.99505520 -60.23557281 847.65802002
5.99094486 -59.90064240 847.65057373
6.79681396 -59.20079041 853.77368164
1.61678696 -57.66519165 844.00915527
7.02366304 -60.54309082 851.64068604
6.98533821 -60.54375458 852.14709473
5.86546993 -58.56408310 847.27392578
6.01934385 -58.55966949 847.63079834
6.24526596 -58.55362701 847.93988037
6.92023087 -60.88178635 850.76794434
6.95278311 -60.88087082 851.23059082
6.96835089 -60.88041306 851.69006348
-2.16802311 -57.07936478 843.67663574
2.05172110 -58.32514572 844.12768555
-1.49209905 -57.06464386 843.63073730
6.37376213 -58.54994202 848.27221680
-0.80668002 -57.04985809 843.56597900
2.40294504 -58.31651688 844.31402588
2.76736808 -58.30762100 844.51251221
-2.14811993 -57.41512680 843.66534424
6.53104115 -58.54549789 848.61608887
6.67114496 -58.54135513 848.99865723
6.64060497 -59.20344162 854.41809082
2.05843401 -57.65491104 844.11010742
6.39949512 -59.20786667 855.14593506
6.29678488 -61.23314285 848.37054443
6.46590900 -61.22889328 848.69067383
5.58278513 -59.57622528 847.00476074
6.83003283 -58.53681564 849.36462402
5.79485989 -59.57072067 847.31970215
6.16604805 -59.89591980 848.01477051
6.08354998 -60.23310089 848.06866455
6.33657598 -59.89152908 848.31488037
6.45133400 -59.88826752 848.70800781
-2.23500109 -56.74464798 843.70214844
-1.51806796 -56.72925568 843.65997314
4.15737104 -57.93858719 845.30419922
4.37451410 -57.93279648 845.60217285
3.12785506 -58.29885101 844.68603516
3.49892211 -58.28984070 844.85473633
3.82502007 -58.28167725 845.10656738
4.12351179 -58.27424622 845.34204102
4.37354183 -58.26773453 845.62451172
4.65446091 -58.26067734 845.83959961
6.33151722 -60.22680283 848.32714844
6.46941423 -60.22311783 848.68975830
6.93301392 -60.54483032 852.68426514
6.60341120 -60.21948624 849.09515381
6.59655094 -59.88425827 849.08770752
6.71512699 -59.88105011 849.46893311
6.92236614 -58.53368759 849.77935791
6.95318079 -58.53194427 850.20599365
-0.29052401 -57.03841782 843.59124756
6.77261686 -60.54845428 853.30761719
0.20973399 -57.02696228 843.69525146
0.70782101 -57.01576614 843.76416016
1.19375503 -57.00466537 843.85687256
1.61457002 -56.99485397 843.99243164
6.71920919 -60.54949188 853.84771729
6.87006998 -62.89823914 851.30426025
2.04876804 -56.98479843 844.13024902
2.43475699 -56.97569656 844.27423096
2.80625391 -56.96686554 844.45989990
6.56753016 -60.55291367 854.47119141
3.18565297 -56.95779037 844.64068604
7.03223610 -58.52914429 850.64251709
7.08256102 -58.52694702 851.08752441
7.16009808 -58.52412033 851.50299072
7.14005804 -58.52339935 852.03076172
7.07096481 -58.52378845 852.56762695
6.69991112 -60.21681595 849.48199463
2.39037204 -58.98692703 844.34143066
6.80429077 -62.90090179 851.84326172
6.96330786 -60.88040161 852.16204834
-2.14532089 -56.07066345 843.67700195
6.84110880 -59.87756729 849.83227539
6.80138397 -62.90172577 852.33532715
6.89041996 -60.88218689 852.72290039
-0.90640402 -56.71605682 843.62286377
4.92300177 -58.25377274 846.09747314
5.14843988 -58.24779129 846.40954590
4.67332602 -57.92538071 845.82055664
7.05367613 -58.52305984 853.04144287
6.03042221 -59.56460190 847.61895752
6.84551907 -58.52629471 853.73590088
-1.45267200 -57.39978027 843.61279297
6.76572084 -62.90347290 852.81982422
6.66657400 -62.90699768 853.39416504
5.48300791 -58.23957825 846.61859131
2.44655395 -57.64556885 844.28808594
6.81445599 -60.21368027 849.87316895
2.77323008 -58.97743225 844.52331543
6.49523020 -62.91254044 854.05529785
-2.23562694 -56.40847015 843.71374512
5.67665005 -58.23422241 846.93017578
-1.48208106 -56.05680084 843.62689209
-0.89068401 -56.04427338 843.61645508
3.49311805 -56.95009232 844.87329102
3.81182599 -56.94240570 845.05798340
4.11148310 -56.93478012 845.32342529
4.43043184 -56.92695236 845.54217529
2.79099703 -57.63711929 844.48431396
-0.83349103 -57.38605118 843.58587646
-0.30121899 -56.03179932 843.60205078
4.70043421 -56.92007446 845.79003906
3.10157108 -58.96935654 844.72222900
0.27678800 -56.01931000 843.64343262
3.51286197 -58.95936203 844.86462402
4.93524790 -56.91374207 846.09033203
5.24980783 -56.90592194 846.33203125
0.70918298 -56.00959396 843.76318359
-1.48299897 -56.39270401 843.62927246
6.98283291 -59.87361145 850.21594238
6.63972378 -58.52957153 854.38836670
6.15704393 -59.56103134 848.00427246
6.49492216 -61.22813797 849.20330811
-0.83505303 -56.37893295 843.58081055
6.67014599 -61.22378922 849.50750732
6.75851917 -61.22160721 849.91119385
-0.33060801 -56.36793900 843.62585449
6.29294920 -62.91898346 854.72589111
6.76767015 -60.88508224 853.29284668
5.48470497 -56.89970016 846.60028076
5.89900208 -58.22832108 847.24420166
3.74727988 -58.95324326 845.15588379
-0.29780000 -57.37406921 843.59747314
6.30751610 -59.55694962 848.34307861
0.24762100 -56.35524368 843.67523193
0.27186701 -57.36114120 843.65765381
4.06858587 -58.94526672 845.36273193
6.70710421 -60.88653946 853.87786865
6.52781010 -60.89081573 854.50585938
-2.18180108 -55.73512650 843.71002197
0.70743102 -56.34497452 843.77447510
-1.51141095 -55.72141266 843.63299561
-0.91772401 -55.70892715 843.63464355
-0.29152501 -55.69594193 843.60388184
4.29948282 -58.93927002 845.65283203
5.69371080 -56.89398193 846.89306641
5.92779779 -56.88769913 847.18933105
6.05112410 -56.88361740 847.56060791
6.26906109 -56.87763596 847.86553955
6.45704079 -56.87224960 848.20306396
-2.21572709 -55.06346893 843.71173096
-1.47105896 -55.04876328 843.61505127
-0.82356602 -55.03582001 843.56463623
-0.26310501 -55.02429962 843.57067871
7.02362490 -59.87211609 850.68469238
0.70511401 -57.35115051 843.76751709
1.21985304 -56.33357239 843.85070801
1.63169003 -56.32413483 843.97308350
2.04602695 -56.31463623 844.11553955
6.49415207 -59.55200577 848.67749023
4.64458990 -58.93063354 845.86309814
6.62340498 -59.54838562 849.05889893
-2.24545002 -55.40014267 843.74053955
7.04078817 -59.87119293 851.14117432
7.01666594 -59.87128448 851.64483643
6.05855799 -58.22363281 847.61413574
6.21286297 -58.21913910 847.97692871
4.94148588 -57.91843414 846.08947754
0.28523201 -55.01287842 843.61553955
0.69459301 -55.00368881 843.74993896
-1.51316500 -55.38552856 843.62963867
4.90933418 -58.92392349 846.12188721
5.15656996 -58.91749191 846.41333008
1.17802799 -57.34022903 843.87799072
1.60366905 -57.33033371 843.99658203
1.24207306 -55.99787521 843.83172607
1.59873998 -55.98963547 843.98016357
5.40488720 -58.91110229 846.67889404
5.64391184 -58.90491486 846.95220947
0.28672999 -55.68367386 843.62823486
2.45755196 -56.30503082 844.28192139
3.11917305 -57.62914276 844.67523193
3.47426605 -57.62042618 844.88360596
2.06945395 -57.31959915 844.09295654
2.48791003 -57.30970383 844.25048828
2.80702090 -57.30175781 844.47027588
6.39436197 -58.21440506 848.21820068
6.54890108 -58.20977783 848.62207031
2.80815196 -56.29664993 844.47229004
6.86952686 -61.21878433 850.30926514
6.86628389 -61.21890640 850.80938721
2.07116795 -55.97898483 844.10064697
2.44198704 -55.97028351 844.27636719
2.84003401 -55.96110535 844.42547607
0.73489398 -55.67371368 843.75030518
1.20979404 -54.99269485 843.84112549
1.60800004 -54.98376465 843.97131348
3.80892491 -57.61228180 845.08758545
4.18512392 -57.60319519 845.26940918
7.04838419 -59.86997986 852.09948730
4.40666199 -57.59721756 845.58142090
6.70006418 -58.20542145 848.96685791
-0.29102600 -56.70277786 843.59991455
6.99249887 -61.21571350 851.19671631
5.79990911 -58.90048599 847.33306885
6.95938015 -59.87147903 852.66705322
6.05552006 -58.89396667 847.60070801
4.66854191 -57.59051514 845.81616211
3.14377999 -57.29357529 844.66931152
3.52640295 -57.28446579 844.83721924
0.26127899 -56.69049835 843.66485596
0.75559598 -56.67942429 843.73968506
6.84740877 -58.20098877 849.34057617
6.90672588 -58.19846344 849.78771973
6.21403790 -58.88950729 847.96063232
6.36854792 -58.88524246 848.28247070
6.49184608 -58.88152313 848.64874268
6.67367220 -58.87657547 848.99908447
4.91135216 -57.58416748 846.10955811
6.82241583 -58.87231445 849.38281250
3.17959189 -55.95299530 844.61859131
6.63736296 -56.86698151 848.53930664
5.23466396 -57.57612991 846.33642578
5.47429705 -57.56981277 846.61975098
3.83181000 -57.27691269 845.05871582
4.14108181 -57.26923370 845.28930664
3.54862189 -55.94435501 844.80523682
1.23339796 -55.66283417 843.83325195
1.61008894 -55.65413666 843.98504639
6.87919521 -60.21168518 850.29443359
6.88466787 -59.87274551 853.21386719
6.70768595 -59.87633133 853.84881592
6.59253788 -59.87839508 854.44396973
6.36146498 -59.88319016 855.20397949
6.87672520 -58.87020111 849.81390381
-0.94047302 -55.37354279 843.64794922
6.98753977 -58.86679077 850.17199707
7.02944279 -58.86489868 850.66381836
7.04722977 -58.86354828 851.12225342
7.11439610 -58.86109924 851.54754639
1.19518495 -56.66933823 843.85662842
1.62321901 -56.65953445 843.99127197
2.06980205 -56.64924240 844.11627197
2.43465090 -56.64066315 844.27490234
7.02957010 -58.19466782 850.15203857
2.77276897 -56.63237000 844.48999023
6.77545691 -59.54416275 849.40869141
6.97872782 -60.20895386 850.73229980
-2.27561688 -54.72834015 843.75329590
7.01032686 -60.20779800 851.15997314
-1.49917698 -54.71338272 843.62823486
-0.26031801 -55.35987854 843.57409668
6.94701195 -61.21698380 851.71099854
6.84420681 -59.54197311 849.81396484
-0.77523601 -54.69942856 843.51312256
7.01241398 -60.20738983 851.63909912
-0.29876301 -54.68929672 843.58569336
7.02452612 -60.20663452 852.12145996
0.21526501 -55.34959030 843.65863037
0.73845899 -55.33831787 843.74005127
5.19284821 -57.91193390 846.37902832
3.88438797 -55.93629456 845.00225830
7.09267807 -58.19216919 850.58929443
7.09652281 -58.86050797 852.05731201
7.02658796 -58.86106110 852.62017822
2.10014892 -54.97307587 844.07818604
2.48027802 -54.96445084 844.23199463
2.86189508 -54.95571518 844.40185547
3.22799206 -54.94724274 844.57543945
3.22021103 -56.28732681 844.58563232
3.54692507 -54.93945313 844.79125977
3.51668811 -56.27978516 844.84503174
3.85167694 -56.27170181 845.04406738
5.67297077 -57.56431961 846.92633057
4.20026302 -56.26323700 845.26434326
4.41762590 -56.25732803 845.54034424
6.97853184 -60.20738983 852.65972900
6.79637003 -60.21130371 853.27764893
4.42937803 -57.26189041 845.54150391
2.08304191 -55.64373398 844.08654785
6.95772886 -59.53870010 850.23107910
6.97687721 -58.86125183 853.09442139
6.82288885 -58.86354446 853.75079346
6.65864277 -58.86617279 854.37402344
6.46832323 -58.86921692 855.07476807
7.01043415 -59.53680420 850.67614746
7.02029610 -59.53589630 851.14746094
4.16314411 -55.92896652 845.29235840
4.40889692 -55.92253876 845.53778076
6.73302984 -56.86330032 848.95812988
4.72339916 -55.91486359 845.75250244
6.91952085 -56.85797119 849.28350830
5.03120708 -55.90723038 846.00305176
3.85176301 -54.93183517 845.04071045
4.16779184 -54.92425156 845.24841309
7.05203295 -59.53448105 851.61810303
7.09768295 -58.19068527 851.08947754
3.19906902 -56.62258911 844.62261963
3.51531100 -56.61485291 844.84234619
3.81870294 -56.60725784 845.06677246
7.13577890 -58.18865585 851.52221680
4.15250778 -56.59902954 845.30786133
7.16214180 -58.18690872 851.99578857
4.45603609 -56.59151840 845.51831055
4.71761799 -57.25470734 845.77368164
2.51865792 -55.63386917 844.21734619
6.97346401 -61.21629333 852.15655518
7.02980185 -56.85402679 849.66754150
7.07560205 -59.53324509 852.06768799
6.98922396 -59.53450775 852.63824463
5.28569317 -55.90050507 846.27868652
-2.35106492 -54.39317322 843.82159424
4.73983097 -56.24950409 845.75109863
6.97351122 -59.53419876 853.12609863
0.27890900 -54.67734146 843.63208008
6.71170521 -60.21297073 853.85528564
5.49697924 -55.89464951 846.56652832
5.91608477 -57.55801010 847.21679688
4.50593996 -54.91609192 845.46850586
4.91427422 -57.24910736 846.10430908
-1.46779203 -54.37693024 843.60540771
4.69167089 -56.58527374 845.79656982
7.11158514 -56.85060120 850.09814453
5.75133324 -55.88784790 846.86309814
5.95065784 -55.88214493 847.17077637
7.26396322 -56.84588242 850.46295166
6.15066290 -55.87653732 847.47833252
6.30812979 -55.87145615 847.83227539
4.97899580 -56.57802582 846.04876709
5.26703310 -56.57067108 846.30200195
5.27575684 -57.24039078 846.29681396
0.73358601 -54.66764832 843.71826172
1.17625403 -54.65787506 843.85723877
1.64165497 -54.64792633 843.95458984
2.05571103 -54.63861465 844.10607910
2.48009610 -54.62935257 844.22967529
-0.83214998 -54.36454391 843.55883789
-0.27741200 -54.35337830 843.56079102
6.60284424 -60.21512222 854.44348145
2.84281898 -54.62097931 844.41119385
5.45070124 -57.90534592 846.62066650
3.22811007 -54.61224365 844.57312012
2.79558992 -55.62685394 844.46032715
0.28639099 -54.34179306 843.61785889
1.19488001 -55.32819748 843.85119629
5.66133213 -57.89963913 846.92749023
5.49220610 -56.56463623 846.59509277
1.59509301 -55.31914520 843.99841309
2.08151603 -55.30857849 844.08111572
2.51518393 -55.29896927 844.20794678
2.82504010 -55.29130554 844.42956543
5.02045679 -56.24225616 846.01916504
5.46161079 -57.23505783 846.63018799
5.27638483 -56.23564529 846.28582764
3.57901311 -54.60409546 844.75347900
3.88456202 -54.59636307 845.00396729
-2.16596389 -54.05416870 843.68756104
0.78918898 -54.33147049 843.67291260
6.84612608 -61.21955490 852.76049805
6.76026487 -61.22182083 853.32305908
6.66818523 -61.22419357 853.90856934
6.41993809 -61.23049164 854.59228516
-1.49393201 -54.04148102 843.60058594
-0.86613101 -54.02918625 843.58581543
4.78004503 -54.90919495 845.70245361
1.23166096 -54.32177734 843.80590820
5.07100916 -54.90180206 845.94274902
1.65008104 -54.31264496 843.93536377
5.31493521 -54.89513779 846.24517822
6.54035711 -55.86511230 848.13348389
5.53162622 -56.22892380 846.55346680
5.71775198 -56.22343826 846.89880371
5.98008204 -56.21675873 847.13958740
6.75519705 -59.53850555 853.81536865
6.08647680 -56.21264267 847.55261230
6.24805307 -56.20772171 847.87854004
2.05304909 -54.30353165 844.10266113
6.61217022 -59.54103470 854.42993164
6.50426006 -56.20101929 848.16015625
6.64478922 -56.19638824 848.51879883
6.70740414 -55.85995483 848.47753906
6.76548481 -55.85664749 848.91564941
6.94242382 -55.85132980 849.25585938
6.05900717 -57.55363083 847.57141113
5.66466904 -56.55952072 846.92022705
5.94477510 -56.55245972 847.16632080
5.67163086 -57.22945404 846.91400146
6.09244394 -56.54770279 847.54199219
7.13491297 -58.18611145 852.50640869
7.22139120 -56.84489822 850.98126221
7.09389305 -55.84644318 849.61071777
3.15081406 -55.61850739 844.64776611
3.53240991 -55.60953140 844.82867432
6.38931704 -59.54533386 855.17413330
2.45343494 -54.29461670 844.24688721
7.19789505 -55.84237671 850.00457764
7.05775118 -58.18650818 853.04315186
7.23171806 -56.84281540 851.45056152
7.23169708 -56.84095383 851.94165039
-0.27771899 -54.01779175 843.56536865
0.28792500 -54.00628281 843.60858154
6.78010702 -56.19174576 848.90930176
4.18977213 -54.58879471 845.24951172
2.84702301 -54.28572464 844.41296387
3.23427010 -54.27714920 844.55487061
5.90303516 -57.89320374 847.22790527
6.09805298 -57.88782120 847.56445313
6.91473722 -56.18721390 849.28375244
5.53200912 -54.88927460 846.51013184
5.76202583 -54.88266754 846.83929443
5.95455980 -57.22222137 847.17315674
6.08130884 -57.21804810 847.55145264
6.28470612 -56.54216385 847.85253906
6.46137619 -56.53701782 848.18774414
6.87281084 -58.18899536 853.71697998
6.62811184 -56.53192902 848.54180908
6.80553007 -56.52667236 848.89306641
6.87894201 -56.52334976 849.30047607
7.07194424 -56.51782990 849.61700439
7.08739519 -56.18210220 849.60089111
7.17027283 -56.17839432 850.04547119
7.20674706 -55.83991241 850.48791504
7.18583393 -56.84011078 852.42590332
7.29193401 -55.83612061 850.91546631
3.85839009 -55.60177231 845.02655029
5.95911503 -54.87693787 847.14886475
6.20381117 -54.87035370 847.42932129
3.22071195 -55.28239441 844.58166504
6.35742807 -54.86502838 847.81011963
6.57558823 -54.85884476 848.12310791
0.79570401 -53.99582291 843.68170166
1.23451996 -53.98642349 843.80755615
1.67089796 -53.97705841 843.92340088
2.09351611 -53.96783066 844.06005859
2.51132011 -53.95862579 844.21057129
6.72385502 -58.19084930 854.31445313
-2.25065088 -53.71921539 843.73974609
-1.54192495 -53.70613861 843.64239502
7.09717894 -56.83984375 853.01440430
7.26954985 -55.83437729 851.39117432
7.30758190 -55.83136749 851.86090088
6.70861197 -54.85412979 848.48852539
7.10630322 -56.51514435 850.10064697
7.23273182 -56.51087570 850.46301270
7.21582890 -56.50918579 850.97277832
7.23023176 -56.17528152 850.46063232
7.22133923 -56.17322922 850.96661377
-0.80808300 -53.69260788 843.54052734
6.24070883 -57.21327972 847.89642334
6.43745279 -57.20780563 848.22497559
6.57077503 -57.20356750 848.58447266
7.31520796 -56.16943741 851.36328125
6.71039486 -57.19911194 848.97607422
6.91031599 -57.19347763 849.30865479
7.26051188 -56.50642014 851.41571045
7.25525379 -56.16832733 851.90734863
7.22789717 -56.50494385 851.94024658
6.98257923 -56.84010696 853.60955811
7.21507215 -56.50337982 852.39404297
4.22040796 -55.59307098 845.23303223
4.44922876 -55.58681488 845.52020264
6.83314514 -54.84976578 848.80383301
4.71232891 -55.58021164 845.75494385
6.98465490 -54.84448624 849.19659424
5.02095604 -55.57241440 846.01049805
6.27476120 -57.54776001 847.87536621
-0.35020900 -53.68323517 843.60180664
0.26424101 -53.67109680 843.62982178
5.30500507 -55.56522369 846.25866699
7.09212303 -54.83998871 849.60064697
0.79334998 -53.66053391 843.67126465
6.39337683 -57.54380798 848.26751709
6.59988689 -57.53821945 848.57330322
6.22265577 -57.88388443 847.93975830
6.69240618 -57.53478241 848.98101807
1.20794904 -53.65145874 843.81976318
1.71216297 -53.64122772 843.89080811
6.85790205 -57.52995300 849.34606934
2.09776402 -53.63259125 844.05279541
2.56672597 -53.62281418 844.15222168
7.15209007 -56.50238419 852.96008301
7.03241301 -56.50251007 853.56604004
6.83528805 -56.50415421 854.19763184
6.62791920 -56.50576782 854.90905762
7.24256706 -56.16642380 852.41021729
7.15382624 -56.16590118 852.95672607
6.83631897 -56.84099960 854.22705078
6.58621407 -56.84374237 854.94567871
3.56870008 -54.26914215 844.77093506
7.01018906 -57.19003296 849.67059326
7.08180618 -57.18685532 850.11291504
7.08011103 -56.16497803 853.52551270
7.15431690 -57.18372726 850.53631592
6.92069483 -56.16577911 854.12774658
2.89498901 -53.95009613 844.36444092
3.88936591 -54.26115799 845.03271484
4.17062521 -54.25413513 845.25280762
2.87764096 -53.61515045 844.38983154
7.22227192 -54.83529282 849.98004150
3.27480888 -53.60646057 844.53997803
7.29491186 -54.83135986 850.41943359
6.70826006 -56.16710281 854.84613037
3.54287004 -55.27442169 844.81152344
3.85728407 -55.26669312 845.03820801
5.51127291 -55.55944824 846.54040527
7.15243578 -57.18201065 851.03234863
7.34320402 -54.82779312 850.86230469
6.38247204 -57.87938690 848.24871826
5.76497602 -55.55271530 846.83203125
5.95857096 -55.54696274 847.16656494
7.21921110 -57.17909241 851.46264648
4.51292181 -54.58098984 845.45831299
7.19740915 -57.17781067 851.95635986
4.76739788 -54.57449341 845.70092773
3.55871701 -53.59936905 844.76507568
7.23588610 -55.83026505 852.41271973
3.23659301 -53.94211197 844.55560303
5.09995413 -54.56633377 845.93695068
4.50261784 -54.24626541 845.45880127
5.38698578 -54.55916977 846.17510986
5.51370907 -54.55443954 846.53442383
3.61153889 -53.93363190 844.72930908
5.80066013 -54.54713440 846.78363037
7.37547684 -54.82467651 851.30999756
7.38142776 -54.82187271 851.78118896
3.95429492 -53.92528152 844.97155762
4.22568989 -53.91844177 845.19342041
7.19417810 -55.82875824 852.91705322
7.11848116 -55.82777405 853.46783447
6.92626905 -55.82878494 854.12451172
6.78374910 -55.82864761 854.79809570
6.95499420 -57.52645111 849.75091553
6.58765078 -57.87364578 848.59741211
4.51147413 -53.91127777 845.43963623
6.02190590 -54.54087448 847.09466553
6.21171618 -54.53520966 847.41510010
4.71829987 -54.24039078 845.71667480
5.03686619 -54.23234177 845.98345947
5.34859180 -54.22488785 846.18908691
4.22761917 -55.25815201 845.21685791
5.58542395 -54.21822357 846.49938965
7.18319702 -57.17646790 852.43920898
4.77940083 -53.90434265 845.68444824
7.07348490 -57.17681885 853.02740479
7.01142406 -57.17627335 853.56634521
4.48440123 -55.25134659 845.49047852
6.80021811 -57.17864227 854.25073242
5.75902987 -54.21274185 846.82153320
5.99475622 -54.20624161 847.11181641
4.75664806 -55.24451447 845.71942139
5.04174089 -55.23718262 845.98657227
5.29505110 -55.23035431 846.27014160
5.56220579 -55.22365189 846.49700928
3.97480392 -53.59017563 844.92260742
6.27229023 -54.19910812 847.37890625
6.53680420 -57.18173218 855.01318359
6.41231489 -54.52906418 847.76379395
5.04903316 -53.89707947 845.99334717
6.60361290 -54.52318954 848.10028076
5.35153580 -53.88984680 846.18981934
5.62164497 -53.88280106 846.45874023
5.81696701 -53.87688065 846.77526855
7.35165787 -54.81959152 852.31378174
4.23425388 -53.58335114 845.19030762
6.41024494 -54.19400024 847.75140381
6.77184200 -54.51787567 848.43328857
6.87410879 -54.51370621 848.78118896
7.26059103 -54.81843185 852.84020996
7.05147314 -57.52306366 850.13177490
6.02679586 -53.87060547 847.10308838
6.23581123 -53.86447906 847.41186523
6.45098591 -53.85837173 847.71081543
7.20287704 -54.81647491 853.39526367
7.04879189 -54.81609344 854.02661133
6.82897091 -54.81653595 854.75177002
7.02462101 -54.50844574 849.16503906
7.13025284 -54.50393677 849.56994629
6.16203690 -55.54126358 847.45825195
5.73701715 -55.21814346 846.86016846
7.11730480 -57.52017212 850.55999756
7.13703203 -57.51818466 851.05249023
4.49108982 -53.57648849 845.46093750
4.75445700 -53.56964874 845.72167969
6.61276197 -54.18789291 848.08209229
6.79732990 -54.18232346 848.39544678
6.92281294 -54.17754745 848.76580811
7.01734591 -54.17306900 849.17651367
6.37145996 -55.53514099 847.80505371
7.16703892 -54.16789246 849.53826904
6.61513805 -53.85281372 848.06280518
6.75376320 -53.84768295 848.42932129
7.21430588 -54.49977875 849.97955322
7.32585812 -54.49521637 850.38061523
6.66286802 -57.87086868 848.98590088
5.94965696 -55.21211243 847.16101074
6.88341188 -57.86491013 849.31188965
5.06884480 -53.56183624 845.96240234
5.34188080 -53.55497360 846.20129395
5.60150814 -53.54809570 846.47302246
6.91539717 -53.84233475 848.76525879
5.80974817 -53.54197311 846.77380371
7.23573494 -54.16384506 849.96356201
7.35757017 -54.15897369 850.35687256
7.38393211 -54.15552521 850.83038330
7.38591814 -54.15268326 851.28149414
6.08151388 -53.53476715 847.06274414
6.23438406 -53.52937317 847.41748047
6.42163897 -53.52355194 847.73492432
6.21781778 -55.20519638 847.41992188
6.91803408 -57.86267853 849.79156494
7.06668520 -53.83701706 849.13006592
7.20331812 -53.83192062 849.50158691
7.00362301 -57.85964966 850.16021729
6.39168787 -55.19962311 847.78808594
7.17968416 -57.51588058 851.48333740
7.30007505 -54.49266434 850.89520264
7.29841900 -53.82735443 849.91137695
7.33549690 -53.82365036 850.37310791
7.08102179 -57.85668945 850.59368896
6.53782988 -55.53001404 848.13909912
7.13071680 -57.85415268 851.04968262
7.22768211 -57.51329422 851.93524170
7.19068718 -57.51251984 852.45269775
7.06381607 -57.51343155 853.04455566
6.94418001 -57.51414108 853.65155029
7.36557102 -54.48900604 851.29846191
7.37225723 -53.81993484 850.83581543
6.84413719 -57.51467133 854.21789551
6.65009403 -53.51712418 848.03503418
7.39817810 -54.48556137 851.77117920
6.74929190 -53.51244354 848.43792725
7.37329483 -54.48308945 852.27978516
6.55700779 -55.19435120 848.13305664
7.20692682 -57.85125732 851.47814941
7.31825495 -54.48110199 852.79888916
7.17913818 -54.48024750 853.41949463
7.03006601 -54.47941971 854.05395508
6.70606518 -55.52478790 848.46514893
6.84169292 -55.52009201 848.84466553
6.97522306 -55.51533890 849.23614502
7.06274509 -55.51157761 849.62280273
6.72390318 -55.18914795 848.46514893
7.47041416 -54.14835739 851.70410156
6.90156984 -55.18383026 848.78240967
7.20002222 -57.84998322 851.95513916
7.04629898 -55.17883301 849.16906738
7.10562420 -55.17534637 849.58221436
7.15928507 -55.17187500 850.02526855
7.19325399 -55.50688171 850.00219727
7.22288895 -55.50392532 850.48382568
6.88176298 -54.47872162 854.68634033
7.35109711 -55.49922943 850.87921143
7.44245577 -53.81594849 851.22515869
7.43098879 -53.81282425 851.74505615
7.40719891 -54.14616013 852.26306152
7.33579683 -54.14442062 852.77886963
7.19781017 -54.14333344 853.39447021
7.06483221 -54.14216232 854.01623535
6.56759024 -57.51838303 854.97106934
7.45229101 -53.80930328 852.22448730
7.37375689 -53.80741119 852.76019287
7.34292507 -55.49712753 851.33514404
7.25149488 -53.80598450 853.34704590
7.05661821 -53.80535889 854.02270508
7.26122713 -55.16750717 850.45812988
6.92877722 -53.80387115 854.63751221
7.33819294 -55.49485016 851.82012939
7.27339077 -55.49335861 852.38610840
7.23455191 -55.49167252 852.87347412
7.13609791 -55.49087524 853.45684814
6.97968578 -55.49090576 854.09515381
7.12823486 -57.85003662 852.49493408
6.73119593 -55.49255371 854.80578613
6.86085701 -54.14201736 854.68566895
7.03454924 -57.85052872 853.07141113
6.94115877 -53.50662994 848.74645996
7.36036777 -55.16337967 850.85699463
6.90469503 -57.85168457 853.68316650
6.74672318 -57.85347748 854.29351807
7.36788321 -55.16064835 851.33020020
7.33286095 -55.15891266 851.80566406
7.29105902 -55.15674210 852.36907959
6.50029278 -57.85685349 855.04821777
7.04793119 -53.50192642 849.13537598
7.17191410 -53.49687576 849.52770996
7.27194595 -53.49221039 849.92150879
7.35595512 -53.48773956 850.34014893
7.39926720 -53.48368835 850.80499268
7.45064020 -53.47981644 851.23297119
7.44751978 -53.47647858 851.72998047
7.46733379 -53.47292328 852.20446777
7.26193714 -55.15478516 852.84558105
7.42658186 -53.47026443 852.71276855
7.20411015 -55.15309525 853.40362549
7.30077410 -53.46852875 853.32360840
7.13922787 -53.46743011 853.94885254
6.93824196 -53.46668625 854.61828613
6.99308395 -55.15389252 854.07800293
6.78602505 -55.15442276 854.77239990
-2.24601412 -53.38299179 843.73144531
-1.51952600 -53.36991501 843.61047363
-0.83183700 -53.35712051 843.56176758
-0.36024901 -53.34778214 843.60424805
0.28522700 -53.33538055 843.60485840
0.71419698 -53.32633209 843.71154785
-2.31869102 -53.04783630 843.76776123
-1.58441603 -53.03475571 843.66192627
1.24372697 -53.31560135 843.79705811
-0.85570699 -53.02157211 843.58001709
1.66372204 -53.30665207 843.92761230
2.13422298 -53.29701614 844.01605225
2.52836299 -53.28827667 844.17822266
2.91498303 -53.27964783 844.35516357
3.26946497 -53.27159882 844.51953125
3.61289310 -53.26350021 844.73474121
3.96504807 -53.25531769 844.93310547
4.29193497 -53.24770355 845.13494873
4.50785780 -53.24126053 845.45989990
-0.31749600 -53.01131058 843.59765625
0.29662201 -52.99968719 843.59368896
0.76870197 -52.99012756 843.67620850
1.18373096 -52.98096466 843.85461426
1.66660702 -52.97136307 843.92437744
4.81702995 -53.23376846 845.66845703
5.09139490 -53.22676849 845.91845703
5.35097790 -53.21977234 846.19915771
5.59433222 -53.21317673 846.47253418
5.81641293 -53.20685959 846.76458740
2.13189292 -52.96192932 843.99768066
2.50932598 -52.95337296 844.19250488
2.90782404 -52.94464111 844.35369873
3.24065399 -52.93704224 844.53070068
3.62288189 -52.92828369 844.73358154
3.95697999 -52.92051315 844.93157959
4.25636387 -52.91314697 845.16198730
6.06088400 -53.20003128 847.06402588
6.26840401 -53.19380569 847.38073730
6.46154594 -53.18780518 847.70330811
6.66063023 -53.18190002 848.01092529
6.77827978 -53.17681122 848.40612793
6.95389414 -53.17118073 848.73229980
7.06563377 -53.16608810 849.14337158
7.18546009 -53.16114044 849.51953125
7.26258516 -53.15675354 849.92401123
4.51199484 -52.90601730 845.46862793
7.34743881 -53.15221786 850.33959961
7.41475582 -53.14781570 850.77685547
7.45261192 -53.14377213 851.24963379
4.79937220 -52.89900208 845.68780518
7.50812721 -53.13972473 851.66772461
7.43891382 -53.13701248 852.22753906
7.38757086 -53.13449860 852.71771240
7.27508211 -53.13229752 853.34082031
7.18249798 -53.13004684 853.89721680
5.08012915 -52.89183044 845.93487549
5.37826204 -52.88449860 846.17034912
6.96028709 -53.12934113 854.59533691
5.64076281 -52.87760162 846.42803955
5.82996321 -52.87171173 846.74249268
6.08937502 -52.86461258 847.03918457
6.27183723 -52.85866547 847.38146973
6.46733379 -52.85271072 847.68511963
6.65546799 -52.84682083 848.00750732
6.81471014 -52.84110260 848.36437988
6.97279310 -52.83548355 848.72131348
7.11527777 -52.82999039 849.09991455
7.20581388 -52.82540894 849.49560547
7.28154182 -52.82082748 849.92303467
7.38746023 -52.81579590 850.32202148
7.42129707 -52.81199646 850.76068115
7.51776981 -52.80697250 851.18243408
7.50641108 -52.80366516 851.66229248
7.47991610 -52.80020523 852.19293213
7.43846607 -52.79734421 852.68627930
7.35336494 -52.79455566 853.28381348
7.20539284 -52.79299927 853.87426758
6.96805620 -52.79218674 854.58911133
-2.30820489 -52.37549210 843.72027588
-1.57799804 -52.36248779 843.67034912
-0.89257997 -52.35060120 843.58270264
-2.26529694 -52.03854752 843.71166992
-0.34142399 -52.34028244 843.59655762
0.27774701 -52.32887268 843.60668945
0.78186500 -52.31901932 843.67974854
1.25491202 -52.30948257 843.77624512
1.66792405 -52.30095291 843.89770508
2.09797597 -52.29203415 844.02539063
2.51619506 -52.28306961 844.17297363
2.91705894 -52.27460098 844.32116699
3.30239606 -52.26606369 844.49108887
-1.54271305 -52.02605820 843.63763428
-0.89331102 -52.01470566 843.58026123
-2.32485294 -52.71174622 843.76531982
-0.29728600 -52.00392151 843.57403564
-1.59583604 -52.69884872 843.67639160
-0.83747202 -52.68556595 843.56201172
-0.31730700 -52.67576599 843.56829834
0.30416000 -52.66404724 843.58648682
3.63531303 -52.25822449 844.71008301
3.97126698 -52.25043488 844.91717529
4.27696800 -52.24301910 845.13568115
4.55593109 -52.23572159 845.40777588
4.83277416 -52.22867203 845.64575195
5.14988518 -52.22105026 845.87152100
5.41228199 -52.21400833 846.14819336
5.63205481 -52.20786285 846.41925049
0.75995702 -52.65470886 843.69165039
5.89666224 -52.20061874 846.71899414
6.10801601 -52.19445038 846.99981689
6.30276299 -52.18810654 847.34136963
1.16653299 -52.64581299 843.86499023
6.50453377 -52.18186951 847.65905762
6.69994497 -52.17568588 847.98065186
6.85292006 -52.17024231 848.31640625
6.96686506 -52.16480637 848.73052979
7.13934994 -52.15893555 849.06762695
7.31969786 -52.15302658 849.39190674
0.25150800 -51.99380112 843.60388184
0.84412301 -51.98285675 843.61755371
1.23036003 -51.97446823 843.79150391
1.71931696 -51.96499252 843.85925293
2.13039303 -51.95629120 844.00964355
1.71234500 -52.63548279 843.88781738
7.38332701 -52.14841080 849.83013916
7.44080305 -52.14364243 850.28826904
2.08044291 -52.62741470 844.04541016
2.51219606 -52.61830139 844.18023682
2.87255692 -52.61014175 844.36071777
3.26557493 -52.60163116 844.52075195
3.66765690 -52.59271240 844.69604492
7.50350285 -52.13925934 850.69342041
7.52938700 -52.13528824 851.12994385
2.55548501 -51.94743347 844.14831543
3.95006108 -52.58570862 844.93011475
7.54605198 -52.13092804 851.64331055
7.57074118 -52.12661362 852.12188721
7.49516010 -52.12406921 852.61560059
7.47355700 -52.12003326 853.17529297
7.27051210 -52.11856079 853.82366943
2.92235088 -51.93929291 844.32696533
3.28874111 -51.93145752 844.47454834
3.61215591 -51.92348862 844.71942139
3.95711899 -51.91545486 844.93762207
4.25163412 -52.57831573 845.15460205
7.03549814 -52.11722565 854.52459717
4.27652121 -51.90801620 845.14135742
4.53892708 -52.57088089 845.42181396
4.55858421 -51.90084457 845.38043213
4.84962606 -51.89366913 845.61975098
5.15593815 -51.88613129 845.85522461
4.84066391 -52.56360626 845.63720703
5.10731602 -52.55650330 845.91802979
5.39857101 -52.54919815 846.15930176
5.66212797 -52.54240417 846.40911865
5.84883022 -52.53631973 846.74645996
5.43165398 -51.87882614 846.12823486
5.63184595 -51.87271118 846.42889404
5.93394995 -51.86507797 846.68731689
6.12308979 -52.52919769 847.00549316
6.15440989 -51.85881424 846.96734619
6.31768894 -51.85298157 847.31732178
6.53042078 -51.84630203 847.65319824
6.71370077 -51.84053802 847.95056152
6.27996588 -52.52341080 847.37536621
6.50143003 -52.51712036 847.65728760
6.67365313 -52.51132584 847.98846436
6.85258913 -51.83498001 848.31903076
7.01553297 -51.82892227 848.69403076
7.15546894 -51.82340622 849.05163574
7.20862484 -51.81900406 849.45861816
7.37402916 -51.81288528 849.84564209
6.81546402 -52.50590515 848.35412598
6.94889498 -52.50041962 848.74053955
7.47101021 -51.80757904 850.26647949
7.11642504 -52.49467087 849.09161377
7.25632000 -52.48926544 849.44818115
7.50507498 -51.80357742 850.68212891
7.36913109 -52.48403931 849.85424805
7.52257681 -51.79944229 851.13952637
-1.62664998 -51.35516357 843.66046143
7.41083193 -52.47974777 850.30700684
-0.88793600 -51.34270859 843.59875488
7.52243280 -51.79500198 851.66754150
7.54215813 -51.79084015 852.12701416
7.50821114 -51.78727722 852.62744141
7.48024893 -51.78347397 853.15399170
7.27586699 -51.78163528 853.81549072
7.47859907 -52.47545624 850.71234131
7.50017309 -52.47137451 851.18078613
7.54875994 -52.46706009 851.62774658
7.55174780 -52.46310806 852.14086914
7.45901823 -52.46082687 852.66125488
7.37727785 -52.45776367 853.24890137
7.23258400 -52.45573425 853.86041260
7.09029818 -51.77946091 854.48626709
6.97742987 -52.45494080 854.57489014
-0.35142100 -51.33298111 843.62939453
0.28975201 -51.32199478 843.59783936
0.80015302 -51.31236649 843.66107178
1.23413396 -51.30390549 843.76080322
1.76594496 -51.29377365 843.83837891
2.10804605 -51.28607941 844.02258301
2.53998399 -51.27753067 844.13739014
2.95344710 -51.26879501 844.29785156
3.31601095 -51.26078796 844.47436523
3.63259101 -51.25328445 844.69903564
3.97677302 -51.24551010 844.88928223
4.28608799 -51.23802185 845.12084961
4.63705587 -51.22968292 845.35424805
4.85849190 -51.22348785 845.62121582
5.15415716 -51.21634293 845.83453369
5.42233276 -51.20896149 846.12939453
5.68781281 -51.20225525 846.36419678
5.96786594 -51.19482040 846.64727783
6.14798403 -51.18860245 846.98754883
6.34029722 -51.18249130 847.28802490
6.52978516 -51.17610931 847.64050293
6.71860123 -51.16987228 847.95892334
6.88886118 -51.16392517 848.29406738
7.03337479 -51.15807343 848.66168213
7.14526892 -51.15282440 849.03076172
7.28056622 -51.14694214 849.43225098
7.41229677 -51.14127731 849.80163574
7.51733780 -51.13593292 850.20159912
7.54387379 -51.13135147 850.66217041
-1.52923906 -51.69002914 843.60650635
-0.92474699 -51.67909622 843.61138916
